#!ascii - generated by CreateLabelFiles project 
2153 4102
20.6655 -17.9397 -18.4255 0
22.7711 -15.698 -16.0305 0
18.5545 -20.2887 -20.7918 0
17.8766 -19.0402 -18.7342 0
17.1474 -17.9476 -16.0859 0
20.9451 -17.1424 -12.467 0
21.9301 -15.6607 -14.3146 0
18.7458 -16.1549 -14.4228 0
16.3201 -17.2811 -13.4361 0
15.4427 -17.7016 -11.0861 0
19.3498 -10.0213 -28.662 0
16.2219 -13.3359 -29.2452 0
12.6474 -16.0457 -29.7356 0
13.8402 -14.8059 -30.1281 0
14.5183 -16.2662 -30.9424 0
14.0899 -18.352 -31.0268 0
-5.91008 -18.2537 -27.9088 0
2.81546 -21.1841 -24.5658 0
-4.82379 -21.119 -23.535 0
0.137151 -22.9893 -24.2329 0
3.5685 -21.621 -25.8718 0
-7.16884 -20.3626 -24.7288 0
-4.231 -22.5136 -23.1136 0
-2.89058 -23.5909 -24.5226 0
-6.2467 -24.0601 -24.6299 0
-1.85129 -24.6514 -26.1102 0
12.482 -19.5446 -30.2861 0
12.4432 -20.6306 -30.8806 0
11.6779 -17.3194 -28.7395 0
11.9199 -18.345 -29.6537 0
11.1438 -20.6051 -29.1388 0
9.10706 -20.9873 -28.3241 0
9.50919 -21.4538 -28.8965 0
8.09002 -19.7494 -25.6589 0
8.65659 -20.8058 -27.4943 0
6.66868 -22.1183 -28.0298 0
10.0139 -18.7723 -27.8208 0
8.20063 -20.1934 -26.8081 0
6.35927 -20.9294 -26.219 0
4.44157 -22.9651 -28.0552 0
4.79105 -22.9745 -29.002 0
4.09309 -22.3294 -27.0129 0
1.71222 -24.7107 -27.1676 0
-1.44925 -24.834 -28.0647 0
10.9982 -22.3772 -30.662 0
7.21704 -21.2765 -29.3293 0
9.50313 -21.9482 -29.5964 0
9.51273 -22.5541 -30.7887 0
7.88821 -20.965 -32.4251 0
2.71115 -23.6276 -30.8239 0
5.06543 -22.1784 -30.1565 0
-4.53986 -23.7758 -28.6316 0
-0.588 -23.5352 -30.2574 0
0.244469 -22.2745 -32.1124 0
-3.74868 -21.1686 -32.751 0
0.964056 -21.6542 -33.2854 0
5.81372 -20.4418 -32.8048 0
4.8859 -21.6086 -33.7944 0
5.59147 -20.4483 -31.1357 0
4.07075 -20.9655 -33.1868 0
0.260061 -22.2096 -33.2926 0
2.20574 -22.7486 -33.933 0
-2.12928 -23.0382 -32.6293 0
0.287519 -23.1221 -33.1811 0
0.359401 -24.3968 -32.7911 0
-0.0809995 -26.5675 -31.3835 0
-7.81214 -18.494 -29.19 0
-15.258 -20.6593 -31.7829 0
-15.3807 -21.6812 -31.6906 0
-13.641 -20.9443 -31.7701 0
-9.65253 -19.1585 -30.059 0
-8.67533 -19.5443 -27.8781 0
-11.5865 -19.8552 -30.7702 0
-12.2292 -20.745 -30.9713 0
-9.36405 -20.5983 -26.7129 0
-13.0379 -21.7509 -30.25 0
-11.452 -20.9062 -28.291 0
-9.64727 -21.6568 -26.1817 0
-9.19956 -23.1843 -26.4443 0
-11.7101 -23.5726 -28.3434 0
-8.12607 -24.3112 -28.2039 0
-13.8906 -22.9151 -30.4142 0
-13.3847 -22.7575 -29.6397 0
-12.4354 -24.1129 -29.6535 0
-12.11 -25.3338 -29.3039 0
-11.0751 -25.2626 -30.2997 0
-15.6002 -22.6874 -30.1341 0
-14.7337 -22.8413 -30.7844 0
-12.3934 -25.1109 -28.2496 0
-10.6486 -26.2294 -28.497 0
-13.7479 -24.0219 -29.3002 0
-12.3611 -24.7493 -27.3111 0
-8.80116 -27.4183 -28.0842 0
-8.10402 -27.5556 -29.0793 0
-7.13868 -24.4591 -30.7002 0
-9.43867 -25.6126 -32.0116 0
-9.76274 -24.6776 -32.0514 0
-7.15063 -23.3156 -33.0282 0
-6.259 -23.0739 -34.0499 0
-5.65602 -27.5937 -29.8592 0
-7.57927 -26.4772 -31.0683 0
-4.04524 -27.7662 -32.0298 0
-4.80236 -26.6862 -35.0975 0
-7.16898 -24.9263 -34.9768 0
-4.8483 -22.7011 -34.8043 0
-7.79526 -25.2334 -33.7994 0
-5.98158 -25.724 -35.0121 0
-3.84427 -25.3652 -36.5517 0
-3.24681 -24.864 -33.4115 0
-2.67299 -25.7101 -34.9993 0
-1.34398 -27.3108 -31.6228 0
-3.44495 -27.8343 -35.8101 0
-3.1816 -27.245 -36.7081 0
-2.61832 -26.8989 -36.9708 0
-3.55323 -26.8757 -36.3801 0
0.333956 -33.032 -34.3285 0
0.453107 -32.9948 -33.403 0
-0.20635 -32.5446 -33.3509 0
-1.89002 -27.9545 -36.3007 0
-2.27303 -27.1896 -36.5437 0
-1.73765 -28.1882 -36.7173 0
-1.58615 -29.1414 -35.4984 0
-1.08219 -30.3795 -34.8817 0
-1.26274 -30.1861 -34.4045 0
-1.34704 -30.4817 -35.2035 0
-0.980857 -31.2349 -34.2501 0
-1.57223 -29.8491 -36.3198 0
-0.929034 -31.6862 -33.6838 0
-0.665909 -31.5351 -33.3328 0
-0.830941 -32.1141 -33.2485 0
-0.177271 -31.9105 -33.2068 0
-2.11798 -28.2179 -35.0333 0
-2.68304 -26.3093 -36.7943 0
-1.07645 -30.7812 -33.2252 0
-1.59357 -29.8342 -33.7239 0
-1.97803 -29.2437 -33.5405 0
-1.60866 -29.8902 -32.3639 0
-2.19377 -28.4336 -33.572 0
-0.312232 -31.6851 -32.6389 0
-0.531278 -31.359 -32.8908 0
0.460647 -31.7699 -33.126 0
0.0576851 -31.7279 -32.8937 0
0.128614 -31.5136 -32.3649 0
0.490863 -31.3219 -31.9857 0
-0.0175949 -31.1781 -31.8685 0
-1.09515 -30.6972 -31.7096 0
-1.21192 -30.1468 -31.4064 0
-0.822703 -31.0449 -32.2871 0
-0.528569 -31.0115 -31.7289 0
-0.100568 -30.6181 -31.5163 0
-0.404806 -29.5775 -31.135 0
-0.954392 -29.1535 -31.1789 0
0.549883 -29.8396 -31.4566 0
0.0677583 -29.7571 -31.317 0
0.269672 -28.8439 -31.1148 0
0.554985 -28.1756 -31.3038 0
0.235098 -27.9841 -31.0987 0
0.84676 -28.0204 -31.8419 0
0.728226 -27.3289 -31.7081 0
0.904395 -29.6986 -31.9959 0
0.933951 -28.8047 -31.9667 0
1.18859 -27.7687 -32.4361 0
1.61325 -27.3487 -33.1661 0
1.50082 -26.8671 -33.1181 0
0.881302 -31.1677 -32.4188 0
0.867294 -30.6266 -32.1186 0
0.832493 -31.607 -33.6142 0
0.89176 -31.3793 -33.0208 0
1.35075 -30.708 -33.1442 0
1.88858 -30.0308 -34.0881 0
1.81207 -29.6052 -33.6626 0
1.63357 -28.241 -33.2282 0
2.01089 -26.8503 -33.9248 0
1.31362 -29.451 -32.6016 0
1.72205 -29.0712 -33.3554 0
2.16736 -28.4146 -34.2655 0
2.435 -26.2885 -34.6919 0
2.41923 -25.5196 -34.6017 0
2.57222 -27.6838 -35.1536 0
2.46322 -27.1684 -34.7852 0
2.78651 -25.7425 -35.3243 0
3.20899 -25.3733 -35.8615 0
3.26863 -24.8972 -35.4898 0
0.787194 -32.4356 -34.2887 0
0.80281 -32.1107 -33.9396 0
0.951444 -32.3485 -35.3664 0
0.724774 -32.3404 -34.8548 0
1.17659 -31.4115 -35.4355 0
2.11886 -30.493 -36.2538 0
1.83412 -30.4748 -35.795 0
4.46095 -29.6845 -37.2319 0
3.91178 -29.9778 -37.3657 0
2.67319 -30.4665 -36.7318 0
3.69551 -29.2032 -36.9966 0
1.82038 -31.6275 -36.4921 0
3.28722 -30.2776 -37.1155 0
4.76999 -28.8106 -36.8528 0
5.26872 -28.0084 -36.5775 0
4.8199 -28.0701 -36.6891 0
5.56955 -27.9311 -36.3059 0
5.47772 -27.8552 -36.3503 0
5.70498 -27.2165 -35.9597 0
5.3677 -26.8575 -35.0595 0
5.53308 -26.6878 -35.3843 0
3.40141 -25.8487 -36.1252 0
4.15448 -24.9994 -35.9128 0
2.78044 -28.0517 -35.643 0
2.94433 -26.8406 -36.0805 0
4.05866 -26.2427 -36.468 0
5.2093 -26.4799 -36.9076 0
5.46002 -25.6364 -36.5413 0
1.81308 -30.2507 -34.545 0
2.39336 -29.1621 -35.1663 0
1.19315 -31.2219 -34.3327 0
1.67426 -30.3803 -35.3334 0
2.69995 -29.3444 -36.162 0
4.44957 -27.2362 -36.8662 0
5.85309 -26.4956 -36.6827 0
2.92409 -28.1242 -36.2962 0
3.23083 -28.1265 -36.8811 0
4.2027 -28.2871 -36.9047 0
6.08671 -26.5308 -36.2936 0
6.28546 -25.6325 -36.0552 0
5.8045 -27.318 -36.6737 0
6.16961 -26.435 -35.9287 0
5.96381 -25.853 -35.0279 0
5.08946 -24.5503 -35.9923 0
5.00324 -24.1574 -35.6808 0
6.3112 -24.8416 -36.0008 0
5.5664 -24.742 -36.0438 0
6.39915 -23.9833 -35.4051 0
7.83485 -24.5075 -33.9173 0
7.6309 -23.9545 -34.2468 0
6.71067 -25.1219 -34.9866 0
6.51423 -24.8482 -35.7552 0
5.98014 -25.7003 -33.7544 0
6.60331 -25.3341 -34.397 0
7.2947 -25.1525 -33.3354 0
7.47415 -25.0445 -31.8521 0
7.991 -24.9782 -32.2844 0
8.06148 -24.6737 -33.3596 0
9.01072 -24.9254 -32.2352 0
7.25008 -24.7216 -34.6083 0
8.11928 -24.8039 -32.8008 0
8.82122 -24.8969 -31.2603 0
9.91529 -24.898 -31.1969 0
10.0954 -25.0627 -31.602 0
9.18337 -24.6975 -29.7629 0
9.65755 -24.8232 -30.3503 0
10.312 -24.5192 -29.9035 0
10.5384 -23.8947 -28.5531 0
10.8774 -24.1331 -29.55 0
8.08874 -30.6781 -34.2145 0
8.66087 -30.1667 -33.3075 0
7.72248 -30.359 -33.4645 0
9.18392 -29.8583 -32.3435 0
9.674 -29.5625 -31.4014 0
8.76299 -29.7781 -31.4799 0
11.2198 -29.5696 -31.0291 0
10.4453 -29.5275 -31.2409 0
9.95475 -29.7151 -30.0627 0
10.1779 -29.9062 -28.658 0
9.49998 -29.7382 -28.8839 0
11.5804 -30.2863 -29.317 0
11.4564 -30.1063 -28.2335 0
10.8065 -29.8009 -28.4857 0
10.6379 -28.8843 -27.4601 0
11.3348 -29.6838 -29.6713 0
11.3356 -29.8019 -28.3487 0
11.3899 -29.2253 -27.1384 0
10.8885 -28.1071 -26.1967 0
10.3737 -28.003 -26.3436 0
11.2487 -28.3542 -26.0181 0
11.0864 -27.6263 -24.8683 0
11.461 -27.6992 -23.7156 0
10.9005 -27.0006 -23.7594 0
10.2655 -23.8761 -27.4479 0
10.8675 -23.0102 -26.7818 0
8.64238 -24.5124 -29.1613 0
9.44801 -24.1971 -28.2897 0
9.87292 -23.4827 -26.5872 0
9.36929 -22.9754 -25.8981 0
10.0984 -22.2087 -25.1276 0
6.93807 -25.1833 -31.5265 0
7.8188 -24.9397 -30.3259 0
5.85531 -26.3089 -33.3468 0
6.44069 -25.775 -32.555 0
6.90161 -25.7925 -31.1508 0
6.4708 -26.3547 -30.7986 0
6.98635 -25.5315 -29.5499 0
8.66683 -24.0525 -26.7703 0
8.88094 -22.7159 -25.3384 0
8.14753 -24.5515 -28.6775 0
7.69234 -24.6514 -28.1161 0
7.45249 -24.956 -27.5446 0
8.52063 -22.2592 -24.5302 0
9.13889 -20.6974 -23.7458 0
7.30783 -25.2929 -27.0438 0
7.92661 -23.8936 -25.6464 0
7.93955 -21.9492 -23.9335 0
7.48581 -22.1643 -23.4626 0
8.07056 -20.1074 -22.1864 0
4.99412 -27.6844 -34.8764 0
5.12608 -27.0212 -34.1741 0
5.45382 -28.1495 -36.2199 0
5.22294 -27.9251 -35.5596 0
4.9249 -28.1235 -34.6804 0
5.07073 -28.5836 -34.3974 0
5.05182 -28.3697 -33.6968 0
5.21552 -28.7815 -36.6119 0
6.6471 -28.9935 -36.4516 0
5.76239 -28.6332 -35.2229 0
5.78602 -29.0576 -34.1996 0
5.83166 -28.4439 -36.1142 0
6.44325 -28.7065 -36.0653 0
7.02157 -29.2083 -35.7734 0
6.55938 -29.5689 -34.0211 0
6.2031 -29.4668 -33.2945 0
7.02908 -29.6375 -34.6763 0
7.13556 -29.9945 -33.7148 0
7.3894 -30.1253 -32.6903 0
7.23662 -24.396 -24.9198 0
7.16869 -22.882 -23.1795 0
6.65951 -26.4036 -28.7297 0
7.18563 -25.7581 -26.6968 0
7.26986 -26.2704 -26.475 0
7.06952 -27.5462 -28.1098 0
7.27665 -26.751 -26.4351 0
5.80181 -27.4442 -31.993 0
6.15522 -27.0444 -30.5404 0
5.64605 -27.2285 -33.1421 0
5.09211 -28.1438 -32.9572 0
5.38807 -28.7514 -32.7554 0
6.70429 -28.2394 -29.9282 0
7.0726 -28.8006 -29.6256 0
6.29365 -27.5563 -30.2732 0
5.97191 -28.6278 -31.5188 0
5.78799 -29.371 -32.5591 0
6.90493 -29.5145 -30.8317 0
7.35333 -29.3387 -29.4023 0
6.30573 -29.7134 -32.2061 0
6.97663 -29.8991 -31.906 0
7.87937 -29.8799 -31.651 0
7.39582 -23.7539 -23.3025 0
7.17688 -21.8702 -21.5991 0
7.65985 -27.4039 -26.3384 0
7.53896 -25.5979 -24.8959 0
7.766 -24.5814 -23.4318 0
8.37908 -25.4006 -23.5004 0
7.8331 -23.8398 -22.0245 0
8.03894 -29.4709 -29.264 0
7.66185 -28.7952 -27.8816 0
8.38469 -29.7089 -30.398 0
8.80678 -29.4916 -29.1211 0
9.24919 -28.9049 -27.8097 0
8.67352 -26.8866 -24.9423 0
8.76221 -26.2218 -23.5119 0
8.09626 -28.07 -26.3516 0
8.92732 -28.1073 -26.4587 0
9.64523 -28.1392 -26.4539 0
8.90497 -26.9824 -23.4618 0
9.04722 -25.6349 -22.3066 0
9.59319 -27.5669 -24.8564 0
9.98102 -26.9402 -23.6284 0
10.5446 -26.613 -22.5415 0
11.0756 -21.655 -25.1756 0
11.5506 -22.0339 -26.0145 0
10.045 -19.7446 -23.8472 0
10.5499 -20.7071 -24.5168 0
10.9537 -19.0067 -23.888 0
11.4526 -17.0586 -22.2377 0
11.7681 -17.6613 -22.9678 0
9.30858 -18.5135 -22.0106 0
9.66301 -18.969 -22.9872 0
8.17345 -18.6814 -20.5156 0
8.83581 -18.3306 -21.1198 0
9.70205 -16.7772 -20.306 0
10.2991 -15.9122 -19.2991 0
10.824 -15.8259 -19.9231 0
11.2248 -16.487 -21.4353 0
12.5649 -15.2515 -20.9773 0
10.4354 -17.6489 -22.1858 0
11.1027 -15.9398 -20.5733 0
12.0329 -15.1414 -19.8358 0
13.6815 -14.0972 -20.2193 0
13.9657 -13.9118 -20.6208 0
12.7236 -14.8297 -19.4612 0
13.2827 -14.396 -19.8359 0
14.7407 -13.652 -20.2871 0
15.9162 -13.6846 -20.1229 0
16.2251 -12.7924 -20.89 0
7.39129 -21.115 -20.2694 0
7.50998 -19.8348 -20.2764 0
8.24016 -23.4159 -20.9153 0
7.59395 -22.2998 -20.5986 0
7.77536 -20.6185 -19.1816 0
8.2609 -20.696 -18.4237 0
8.2856 -19.1377 -18.0546 0
9.68824 -25.2468 -21.3267 0
9.0363 -24.3671 -21.1594 0
10.693 -26.8 -21.3166 0
10.1957 -26.1329 -21.3909 0
9.91475 -25.1394 -20.2744 0
9.84242 -25.2939 -19.2344 0
9.56142 -24.1006 -19.0606 0
8.46134 -22.0177 -18.7119 0
8.74497 -20.7072 -17.6225 0
8.71411 -23.1527 -19.9136 0
9.25593 -22.9352 -18.9594 0
9.14213 -23.1731 -17.8444 0
9.1509 -21.1047 -17.0369 0
8.93333 -19.8521 -16.8773 0
9.26091 -23.6651 -16.9524 0
9.49176 -22.0883 -16.865 0
9.89837 -21.1983 -16.1079 0
10.451 -21.9204 -15.3902 0
10.3891 -20.8362 -15.8466 0
15.1711 -14.5793 -19.4539 0
16.6259 -14.4888 -19.8844 0
12.0248 -15.4344 -18.742 0
13.5359 -15.1175 -19.1319 0
14.2825 -15.735 -18.9056 0
12.9389 -16.5085 -18.4494 0
14.5469 -16.9903 -19.1225 0
9.4599 -16.5356 -18.6864 0
10.699 -15.7615 -18.4915 0
8.07364 -17.7638 -19.2015 0
8.72483 -17.5968 -18.1038 0
9.28462 -17.7254 -17.2273 0
11.5028 -16.4545 -17.843 0
11.8405 -17.7065 -17.6847 0
11.0146 -15.9955 -18.0909 0
10.3789 -16.9514 -17.2989 0
9.62076 -18.5408 -17.0466 0
10.8417 -18.6509 -16.8722 0
12.1407 -18.8103 -17.7695 0
9.73931 -19.2108 -16.6328 0
9.94411 -19.9633 -16.4445 0
11.0805 -20.6065 -15.8103 0
16.9583 -15.3863 -19.7481 0
17.711 -14.5509 -20.5577 0
14.6931 -18.1641 -19.1438 0
15.8387 -16.9007 -19.5176 0
16.8916 -16.7592 -19.8046 0
16.7853 -17.9936 -20.019 0
17.5805 -16.6689 -20.7125 0
12.4349 -19.4835 -17.8166 0
13.4553 -19.1176 -18.5813 0
11.8561 -21.4843 -15.3115 0
12.2236 -20.3249 -16.4282 0
13.3495 -20.2893 -16.9782 0
14.0297 -21.2339 -16.2618 0
14.3547 -20.5336 -17.8324 0
15.7645 -19.0143 -19.6652 0
16.5468 -19.034 -20.5975 0
14.6944 -19.0464 -19.0647 0
14.8488 -19.9352 -19.089 0
14.8304 -20.7437 -18.9496 0
16.2643 -20.1662 -20.9164 0
17.2603 -18.879 -21.4569 0
14.9452 -21.4094 -18.5134 0
15.3825 -21.0276 -20.0006 0
16.0701 -21.1614 -21.0659 0
16.0369 -21.7997 -20.9408 0
16.8308 -21.165 -21.9663 0
15.4481 -22.6158 -19.4479 0
15.9949 -22.4544 -20.4865 0
14.7532 -22.3715 -16.9348 0
15.0269 -22.5162 -18.2141 0
15.1156 -23.5968 -17.8881 0
14.9352 -24.5675 -16.6008 0
15.3911 -24.2626 -17.4429 0
13.133 -22.4216 -15.1956 0
14.0999 -22.3532 -15.9719 0
11.3368 -22.8353 -14.7157 0
12.1962 -22.6065 -14.8079 0
12.6512 -23.893 -14.8751 0
12.223 -25.3152 -14.6052 0
13.0428 -25.0632 -14.9106 0
14.4043 -24.7312 -16.0095 0
14.516 -26.0338 -16.3044 0
14.3267 -23.5393 -15.9109 0
13.8173 -24.8421 -15.3633 0
13.2624 -26.2345 -14.975 0
14.2684 -27.0836 -15.8618 0
14.7955 -26.5409 -16.1033 0
13.062 -27.4486 -14.979 0
13.6761 -27.2862 -15.3499 0
14.0347 -27.9536 -15.4032 0
9.89933 -23.7824 -15.6406 0
10.5965 -23.1758 -14.9578 0
8.98426 -25.2007 -17.2586 0
9.25869 -24.4985 -16.3775 0
9.43038 -25.4593 -15.9602 0
9.06849 -26.9984 -16.2537 0
9.75002 -26.3385 -15.5042 0
10.0102 -26.3899 -19.3682 0
9.1069 -25.8937 -18.2791 0
11.1401 -27.4909 -21.3571 0
10.5466 -27.0049 -20.3809 0
10.3233 -27.4683 -19.5271 0
10.0952 -28.2516 -18.7865 0
8.9573 -27.5608 -17.1293 0
9.15119 -28.2995 -16.7464 0
8.92062 -26.701 -17.5921 0
9.46829 -27.9745 -17.9187 0
9.65884 -28.9486 -16.4413 0
9.70975 -29.8822 -18.1344 0
12.4108 -27.7385 -14.9194 0
12.9259 -28.7822 -15.3831 0
11.3621 -25.5834 -14.6391 0
11.693 -26.6696 -14.3708 0
10.9365 -24.3816 -14.8081 0
10.4491 -25.9047 -14.8826 0
10.1535 -27.2928 -15.0342 0
11.5825 -27.9688 -14.8985 0
10.7733 -28.136 -15.1023 0
10.1097 -28.5054 -15.7068 0
11.9607 -28.3387 -23.7575 0
11.5876 -27.9061 -22.4974 0
12.0832 -29.7959 -26.1268 0
12.073 -29.088 -24.9243 0
12.089 -29.0707 -22.7638 0
15.9598 -23.0064 -19.8007 0
16.5897 -22.0808 -21.2887 0
15.62 -24.6517 -17.1356 0
15.7693 -23.9182 -18.4494 0
16.2141 -23.525 -19.3571 0
16.4147 -23.6602 -18.7801 0
16.6558 -22.7778 -20.0679 0
15.0779 -26.9702 -15.8129 0
15.3373 -25.8713 -16.5106 0
14.5499 -27.9944 -14.4372 0
14.6536 -27.4561 -15.1753 0
15.1063 -26.6713 -15.0494 0
15.5402 -26.279 -14.0766 0
15.532 -25.9195 -15.0604 0
16.1536 -24.2712 -17.4057 0
16.6029 -23.3127 -18.0432 0
15.8092 -25.0992 -16.8912 0
15.8654 -25.3991 -16.3002 0
15.9771 -24.9437 -15.1251 0
16.7131 -22.8869 -16.7491 0
16.8313 -21.8011 -18.1381 0
16.6002 -24.1953 -13.7886 0
16.4856 -23.6661 -15.1681 0
17.0826 -22.3578 -15.3762 0
17.5301 -21.8353 -14.0029 0
16.8884 -20.7442 -15.3465 0
17.7231 -22.4132 -12.7629 0
17.5772 -21.5293 -12.8528 0
16.7539 -24.5916 -12.7373 0
17.3385 -23.4313 -12.6685 0
16.1958 -25.5767 -12.9778 0
17.1977 -21.3719 -11.9116 0
16.9674 -20.2233 -12.7558 0
16.6735 -21.0186 -11.0165 0
15.6952 -19.8181 -10.7212 0
21.5176 -6.96481 -26.1776 0
23.3963 -6.67151 -23.8758 0
23.3442 -7.95427 -19.4959 0
22.1608 -7.33477 -19.1316 0
20.0081 -8.93579 -27.6906 0
19.5154 -9.35067 -27.4568 0
20.4167 -7.57825 -26.7256 0
17.4052 -12.6579 -28.9859 0
17.557 -13.5422 -29.2207 0
18.6827 -11.1958 -28.3242 0
19.2313 -9.68436 -27.4154 0
18.8326 -10.1729 -27.4118 0
19.2966 -8.55503 -26.3968 0
15.6077 -16.1977 -30.9665 0
16.0425 -16.6277 -30.7162 0
16.573 -15.2639 -30.1905 0
15.4261 -18.2797 -30.9963 0
15.5454 -18.8129 -31.0204 0
15.9064 -17.659 -30.815 0
16.4248 -17.0894 -30.4934 0
16.932 -17.4563 -30.0715 0
17.2158 -16.2006 -29.8333 0
18.169 -12.461 -28.3534 0
17.9548 -10.9896 -27.1961 0
17.3843 -14.0269 -29.2941 0
17.4822 -14.4298 -29.2329 0
17.6889 -14.7624 -29.0049 0
17.7477 -11.3064 -27.1131 0
17.8552 -9.44549 -25.8919 0
17.7429 -15.0597 -28.2777 0
17.7867 -13.1214 -28.0343 0
17.2038 -11.4039 -26.5755 0
16.5532 -11.393 -25.8292 0
17.1514 -9.51698 -24.6587 0
24.6051 -8.47372 -19.8018 0
22.4437 -8.31608 -19.4692 0
26.028 -7.06677 -21.6184 0
26.2617 -8.09825 -20.679 0
25.6189 -8.76451 -20.1089 0
26.1255 -8.54722 -20.779 0
24.9392 -9.2788 -19.8593 0
21.7985 -6.98543 -24.5093 0
23.4328 -6.69325 -23.1255 0
20.8922 -7.07193 -25.7183 0
20.2141 -7.42789 -25.3624 0
19.3496 -7.6356 -25.2054 0
24.4452 -7.30133 -21.7645 0
25.3958 -8.13562 -21.5094 0
23.6557 -6.68663 -22.3226 0
21.2352 -6.98342 -23.4646 0
19.0191 -7.72345 -24.7256 0
22.5865 -7.60814 -22.053 0
26.2461 -8.88916 -21.3786 0
18.9165 -7.8035 -24.0564 0
19.3064 -7.93814 -23.2198 0
20.1247 -8.13321 -22.3857 0
21.5796 -8.6483 -19.4809 0
20.3713 -7.99608 -19.1033 0
24.1441 -9.62382 -19.8154 0
22.8809 -9.17394 -19.6452 0
21.0762 -8.983 -19.0518 0
20.7003 -9.33507 -18.755 0
19.2502 -8.58517 -18.5869 0
25.821 -9.41072 -21.2101 0
25.0524 -9.71001 -20.2809 0
21.3181 -8.52853 -21.8319 0
24.8226 -8.91088 -21.7486 0
25.4008 -9.88908 -21.3055 0
25.1599 -10.2645 -21.7104 0
24.3548 -10.6428 -20.535 0
21.996 -9.93677 -19.2562 0
20.3459 -9.60319 -18.9856 0
23.6521 -10.0266 -19.6648 0
23.2444 -10.371 -19.8316 0
22.821 -10.7033 -20.1625 0
20.0722 -9.99029 -19.1034 0
18.7434 -9.31785 -18.5647 0
22.3817 -11.1023 -20.4228 0
21.173 -10.5954 -19.7706 0
19.5905 -10.4333 -19.2984 0
19.1433 -10.9693 -19.5289 0
18.0175 -10.3315 -18.9381 0
13.3944 -20.4662 -31.3077 0
13.6152 -21.1959 -31.2826 0
14.6069 -19.9582 -31.1298 0
11.436 -22.5861 -31.5076 0
11.5806 -22.3543 -31.7129 0
12.4829 -22.0958 -31.5761 0
13.6806 -21.4979 -31.4758 0
13.6837 -21.9635 -31.6658 0
14.9787 -21.2034 -31.0762 0
10.0657 -22.4092 -31.8278 0
10.2701 -21.9374 -32.3798 0
10.8469 -22.2755 -31.9881 0
8.65527 -21.9601 -32.68 0
8.15947 -22.2828 -33.0412 0
9.47453 -22.2316 -32.6118 0
10.1861 -22.4084 -32.7747 0
10.109 -22.8544 -33.0894 0
10.9615 -22.5695 -33.1378 0
12.6046 -22.2839 -32.1613 0
13.541 -22.4503 -32.1552 0
11.7314 -22.1141 -32.1409 0
11.7521 -22.3294 -32.6822 0
11.7889 -22.7564 -33.5339 0
13.5072 -22.7016 -32.5664 0
14.4561 -22.1086 -31.6765 0
11.6673 -23.2376 -33.6124 0
12.6287 -22.8905 -33.4511 0
13.4352 -22.9661 -32.9355 0
13.1686 -23.6585 -33.2272 0
14.2275 -23.0791 -32.3909 0
5.48779 -22.1622 -33.9816 0
4.98664 -22.3885 -34.3679 0
6.5557 -22.3092 -33.6757 0
2.818 -23.0194 -34.1785 0
2.51025 -23.7072 -34.124 0
3.69964 -22.8679 -34.4036 0
4.53853 -22.5847 -34.6705 0
4.19192 -23.0221 -34.629 0
5.52857 -22.6778 -34.4009 0
1.07436 -24.8831 -33.0464 0
1.18117 -25.5892 -33.0878 0
1.74838 -24.651 -33.6018 0
0.59385 -26.7904 -31.7096 0
0.949057 -26.5339 -32.3577 0
1.34754 -26.2994 -33.036 0
1.78951 -25.8085 -33.7177 0
3.04072 -23.8432 -34.5583 0
3.8632 -23.4842 -34.8256 0
2.33287 -24.2707 -34.1724 0
2.28849 -24.846 -34.1835 0
2.33336 -25.2308 -34.3503 0
3.52549 -23.8739 -35.0931 0
4.61987 -23.071 -35.0798 0
2.83684 -24.7445 -34.9113 0
3.26013 -24.4364 -35.3005 0
4.06812 -23.9972 -35.5386 0
12.124 -24.0258 -33.3863 0
12.9955 -24.1078 -33.1883 0
10.722 -23.4986 -33.3483 0
11.433 -23.7508 -33.3697 0
11 -24.1941 -32.9806 0
9.4061 -23.8148 -33.143 0
10.7107 -24.4335 -32.7481 0
8.78309 -22.8885 -33.3761 0
9.82298 -23.1985 -33.3767 0
7.69637 -22.5203 -33.3996 0
7.07873 -22.6095 -33.6567 0
6.46865 -22.7707 -34.0809 0
8.32447 -23.2651 -33.4143 0
7.53044 -22.9355 -33.8424 0
9.1012 -23.3169 -33.3113 0
7.35272 -22.827 -33.7344 0
5.82683 -22.8507 -34.5147 0
6.20273 -22.8972 -34.8628 0
7.28194 -22.9906 -34.2079 0
5.36554 -22.8417 -35.1488 0
5.05185 -23.0272 -35.5934 0
4.96192 -23.6067 -35.6349 0
13.0746 -24.4726 -32.7675 0
13.8486 -23.8024 -32.2579 0
10.4868 -24.5861 -32.6493 0
11.9146 -24.5501 -32.654 0
12.9575 -24.614 -32.2487 0
12.7471 -24.6274 -31.6868 0
13.5198 -24.1718 -31.1175 0
7.28967 -23.0573 -34.395 0
8.88676 -23.945 -33.2395 0
6.0562 -23.3628 -35.3069 0
7.41936 -23.2832 -34.4351 0
9.02434 -24.8997 -32.7014 0
11.6774 -24.8834 -31.979 0
12.4976 -24.6754 -31.1589 0
10.4031 -24.786 -32.4239 0
10.373 -25.1096 -32.147 0
10.3635 -25.2328 -31.8484 0
12.144 -24.6305 -30.6102 0
12.9433 -23.9991 -29.9435 0
11.3987 -25.139 -31.1369 0
11.5466 -24.3552 -30.0527 0
11.6862 -23.456 -28.8182 0
20.2092 -11.4556 -20.1254 0
18.698 -11.5403 -19.6985 0
23.4106 -11.3804 -21.1217 0
21.7722 -11.3204 -20.5985 0
21.2898 -11.7201 -20.7693 0
22.3372 -11.8265 -21.573 0
20.9425 -11.9875 -20.9678 0
25.6761 -9.81584 -22.6543 0
24.6273 -10.7879 -21.8764 0
17.6826 -9.38201 -23.006 0
22.8198 -9.22266 -21.9049 0
23.7094 -9.60709 -22.6119 0
19.4757 -9.76766 -22.2187 0
24.3255 -10.0194 -23.0506 0
23.5339 -11.5553 -22.2775 0
23.1637 -11.8855 -22.6063 0
24.0341 -11.2462 -21.955 0
24.7629 -11.0113 -22.894 0
24.4285 -10.5179 -23.4399 0
24.0375 -11.9159 -23.5512 0
23.0436 -12.3859 -23.036 0
21.2653 -10.3958 -22.5259 0
24.6042 -10.9925 -23.8392 0
24.6084 -11.5964 -24.1463 0
22.7722 -10.9167 -23.6192 0
24.2711 -12.1067 -24.4702 0
16.5571 -13.1504 -26.6703 0
16.1338 -11.3868 -25.0262 0
17.4758 -16.7205 -28.7542 0
17.4082 -15.1512 -27.6218 0
16.8902 -15.0938 -27.1572 0
16.9079 -17.1734 -27.9865 0
16.4178 -15.2224 -26.7245 0
16.6389 -18.6543 -30.3889 0
17.2075 -17.8496 -29.715 0
15.7313 -19.3299 -30.8204 0
15.9317 -19.9167 -30.5947 0
15.9758 -20.7643 -30.6855 0
16.9704 -19.0284 -29.4213 0
16.812 -19.353 -29.0248 0
17.1394 -18.4371 -29.5761 0
16.4216 -20.027 -30.12 0
15.6518 -21.3679 -30.918 0
16.4132 -21.1823 -30.0965 0
16.858 -19.5541 -28.5308 0
15.3297 -21.8225 -31.2094 0
15.3337 -22.2034 -31.2467 0
15.3101 -22.4798 -31.047 0
17.5447 -11.0152 -22.184 0
18.5712 -10.8891 -22.1953 0
15.8077 -11.1613 -22.6026 0
16.5567 -11.0914 -22.3137 0
14.6965 -13.4119 -23.3008 0
14.6672 -15.7897 -24.9422 0
14.2611 -15.6454 -24.3477 0
15.7118 -11.6015 -23.8259 0
15.6053 -11.3812 -23.1513 0
15.7915 -11.4293 -24.4078 0
15.3007 -13.2193 -25.6771 0
16.0633 -15.4479 -26.3588 0
14.9066 -15.7457 -25.5288 0
15.2618 -17.9575 -26.4226 0
14.8004 -13.4795 -24.4956 0
15.6279 -15.6249 -25.8991 0
16.4128 -17.6659 -27.1899 0
16.1659 -19.9731 -27.9507 0
15.6133 -20.1712 -27.5184 0
16.5319 -19.7759 -28.2742 0
16.4792 -21.5739 -29.2748 0
15.198 -22.794 -30.9612 0
15.3239 -12.5121 -22.3026 0
19.4688 -10.942 -22.5689 0
14.2444 -17.9217 -25.3517 0
13.9719 -15.1103 -23.5031 0
13.991 -14.066 -22.4899 0
13.6897 -16.5484 -23.6201 0
14.5783 -13.2378 -21.8851 0
15.5519 -22.2886 -28.6877 0
15.1037 -20.398 -27.0364 0
14.7058 -23.1984 -30.7446 0
14.4936 -23.565 -30.2209 0
14.1981 -23.5889 -29.6399 0
14.154 -19.8486 -25.5537 0
13.6937 -19.2024 -24.727 0
14.5981 -20.3406 -26.3828 0
14.5632 -22.2799 -27.694 0
13.8008 -23.2553 -28.9407 0
13.4305 -21.1935 -26.0955 0
13.166 -18.5031 -24.0642 0
13.3425 -22.8861 -28.2233 0
12.6669 -22.4804 -27.539 0
12.0146 -22.2537 -26.8789 0
18.4632 -12.0466 -19.5422 0
17.3165 -11.4847 -18.8947 0
20.6802 -12.4242 -20.9928 0
19.5993 -12.2964 -20.1699 0
18.2926 -12.533 -19.4177 0
18.1329 -13.0689 -19.4273 0
17.1824 -12.5803 -18.7391 0
22.8546 -12.9463 -23.3734 0
21.731 -12.6808 -22.1462 0
23.897 -12.5381 -24.8592 0
23.4885 -12.9112 -24.2413 0
22.2427 -13.4265 -23.5164 0
21.9374 -13.8926 -23.6376 0
21.0344 -13.6578 -22.4528 0
19.1847 -13.282 -20.3083 0
18.1068 -13.6316 -19.4394 0
20.3433 -12.9812 -21.2288 0
20.1815 -13.4129 -21.2548 0
20.0584 -13.8204 -21.3168 0
18.5539 -14.1851 -19.3216 0
17.4802 -13.9515 -18.7205 0
20.361 -14.3583 -21.5158 0
19.483 -14.2233 -20.2966 0
18.9943 -14.6873 -19.4196 0
19.5865 -15.163 -19.7481 0
18.6695 -15.1497 -18.6526 0
20.0673 -11.1197 -22.6579 0
22.6162 -11.7663 -24.3279 0
15.0221 -12.8451 -21.5074 0
17.0981 -11.4242 -21.7156 0
20.0725 -11.4727 -22.4745 0
19.4718 -11.9185 -22.3941 0
21.1085 -12.4316 -23.8731 0
12.849 -18.1919 -23.5283 0
13.5908 -15.2181 -22.1526 0
12.1333 -20.3592 -25.0427 0
12.1918 -17.9202 -23.2647 0
12.9973 -15.4072 -21.7301 0
16.9741 -11.6681 -21.6011 0
18.7229 -12.342 -22.3372 0
15.1458 -12.8435 -21.3331 0
14.8477 -13.0911 -21.0684 0
14.3585 -13.5077 -20.7626 0
17.7955 -12.6515 -22.3505 0
19.511 -13.0646 -23.1006 0
15.7437 -12.7282 -21.2901 0
16.9288 -12.6343 -21.7703 0
17.9212 -13.4539 -21.7914 0
20.4126 -15.3355 -21.2128 0
20.1323 -15.8579 -20.4381 0
21.2766 -14.7014 -22.86 0
20.7164 -14.9569 -22.034 0
21.0763 -15.6358 -22.9419 0
20.7902 -15.4813 -23.9509 0
20.6731 -15.8957 -23.5169 0
22.3902 -13.7042 -24.37 0
21.8535 -14.3116 -23.6864 0
23.1749 -12.9426 -24.8455 0
22.3198 -13.1595 -24.7028 0
21.4709 -13.2679 -24.476 0
21.1719 -14.7619 -24.3648 0
20.3463 -15.2047 -24.4206 0
21.5656 -14.4864 -23.9639 0
21.4356 -13.9846 -24.5386 0
20.617 -13.4756 -24.171 0
19.7884 -14.6012 -23.701 0
19.5835 -15.383 -23.6805 0
19.7536 -13.7878 -23.6956 0
18.958 -14.1044 -23.0376 0
18.4192 -14.1757 -21.6662 0
20.5367 -16.3724 -21.341 0
19.8759 -15.9333 -19.7462 0
19.9438 -16.1464 -23.4017 0
20.4567 -16.2698 -22.8866 0
20.4785 -16.5733 -22.2219 0
19.8932 -16.8851 -22.4874 0
20.4952 -16.8788 -21.5277 0
18.8689 -15.5464 -22.802 0
19.284 -16.0356 -23.5343 0
18.4423 -14.9642 -21.6747 0
18.2768 -15.7412 -21.6199 0
18.1823 -16.5708 -21.6618 0
19.2596 -16.8307 -22.8187 0
19.2741 -17.3642 -22.5964 0
19.2232 -16.4418 -23.1025 0
18.6508 -16.8791 -22.4855 0
18.0658 -17.496 -21.7257 0
18.5426 -18.2463 -22.3601 0
19.2782 -17.8146 -22.4212 0
17.9053 -18.5209 -21.9243 0
17.7519 -19.5912 -22.146 0
17.5823 -20.7226 -22.4434 0
21.0046 -6.6826 -18.8144 0
19.9778 -7.00271 -18.8118 0
12.5807 -4.15387 -14.902 0
12.6014 -5.10663 -15.5186 0
13.9962 -5.38622 -16.9304 0
15.5937 -6.00856 -17.5543 0
14.8978 -6.2977 -17.3093 0
17.7097 -6.54826 -18.3149 0
19.0548 -7.32008 -18.7772 0
12.9465 -4.91263 -13.9806 0
13.1857 -6.10923 -16.1155 0
12.711 -5.52141 -15.0266 0
12.7737 -6.11615 -14.8033 0
13.1328 -7.39375 -15.7461 0
13.07 -6.76931 -14.5372 0
16.1825 -7.08559 -17.7793 0
14.3398 -6.64031 -17.0414 0
18.2724 -7.53848 -18.5489 0
17.6648 -7.83493 -18.3051 0
17.3948 -8.18041 -18.0619 0
14.0114 -7.85908 -16.6891 0
14.1836 -8.37531 -16.6045 0
14.1595 -7.17023 -16.763 0
15.5439 -8.04479 -17.3887 0
17.2086 -8.68041 -17.9991 0
15.7049 -9.0185 -17.2787 0
14.4497 -8.89552 -16.5832 0
17.0961 -9.15159 -18.0452 0
16.8469 -9.6689 -18.1972 0
16.5744 -10.2109 -18.4588 0
21.828 -8.6893 -13.4027 0
22.0262 -9.06211 -12.6561 0
20.6777 -9.01277 -13.9805 0
20.2201 -7.8596 -14.6783 0
19.4213 -8.93817 -13.5342 0
19.8325 -9.55974 -13.0573 0
18.9443 -7.73983 -14.3921 0
19.172 -8.33773 -13.95 0
18.2005 -9.17099 -13.3384 0
17.0454 -9.52219 -13.3933 0
17.4044 -10.3678 -12.8662 0
16.8007 -8.50238 -13.7307 0
16.0317 -9.80739 -13.6184 0
18.7385 -6.88748 -14.5469 0
17.7536 -7.64889 -14.2097 0
16.6436 -7.41384 -14.0539 0
16.6005 -6.594 -13.9003 0
15.7476 -7.58251 -13.9387 0
17.3047 -5.69794 -14.1284 0
16.4572 -5.88634 -13.6269 0
15.4801 -6.03622 -12.9983 0
16.5436 -4.41019 -13.4499 0
15.5329 -4.5811 -12.8602 0
14.4678 -4.58571 -12.8535 0
15.1216 -10.0965 -14.1432 0
15.5447 -11.0452 -13.9375 0
14.9067 -7.873 -13.9024 0
14.9338 -8.99221 -14.0508 0
14.2733 -10.5249 -14.8276 0
13.9038 -10.6504 -15.4486 0
14.2962 -11.3737 -15.2547 0
14.5362 -6.03698 -12.9574 0
14.8584 -6.86001 -13.4928 0
14.1808 -5.29277 -13.0372 0
13.7056 -6.12647 -13.4329 0
13.4488 -7.5062 -14.2537 0
14.1289 -9.55342 -15.1209 0
13.9091 -10.5166 -16.0778 0
14.3748 -8.08845 -14.1623 0
13.9078 -8.45505 -14.649 0
13.924 -8.60542 -15.5891 0
14.4923 -10.2536 -16.9245 0
14.0885 -11.2198 -16.7908 0
14.6614 -9.42769 -16.8949 0
15.5854 -10.1009 -17.6594 0
16.2613 -10.8178 -18.2533 0
21.2871 -9.86275 -12.7318 0
22.1434 -9.47741 -11.8097 0
22.498 -10.0914 -11.3004 0
22.054 -10.8534 -11.759 0
22.7359 -10.9524 -10.9417 0
19.071 -10.4989 -12.5858 0
20.2586 -10.109 -12.6685 0
16.935 -11.4838 -12.886 0
17.9443 -10.9972 -12.5651 0
18.5613 -11.456 -12.5396 0
18.3409 -12.302 -12.9316 0
19.2845 -11.8152 -12.8286 0
21.2797 -11.2309 -12.5378 0
21.7467 -11.8685 -12.6244 0
20.7937 -10.6772 -12.5889 0
20.2397 -11.4793 -12.7137 0
20.0575 -12.1844 -13.3494 0
21.4633 -12.4727 -13.3076 0
22.1794 -12.4714 -12.671 0
20.0269 -12.901 -14.0364 0
20.7429 -12.6634 -13.7282 0
21.4457 -13.157 -14.0597 0
21.5245 -13.8784 -14.8068 0
22.021 -13.8004 -14.2219 0
15.3201 -11.8697 -14.497 0
16.1262 -11.759 -13.725 0
14.4528 -11.9565 -15.5717 0
14.8715 -11.9462 -15.0634 0
15.4942 -12.4872 -15.1811 0
15.7041 -13.1144 -15.716 0
16.1897 -13.0525 -15.0824 0
15.1155 -11.6098 -17.4001 0
14.5282 -11.8285 -16.4569 0
16.0555 -11.4422 -18.0874 0
16.1064 -12.0443 -18.0145 0
16.2045 -12.761 -18.0211 0
15.5611 -13.1106 -16.3595 0
16.2123 -13.7118 -16.5197 0
14.9159 -12.4876 -16.1931 0
15.6177 -13.0364 -17.1477 0
16.3961 -13.6034 -18.1029 0
16.719 -14.2972 -17.3213 0
16.9077 -14.2038 -16.6312 0
16.9514 -14.2073 -18.0243 0
17.694 -14.705 -17.963 0
18.3268 -15.327 -18.1228 0
20.982 -13.9974 -15.2472 0
21.9186 -14.6067 -15.7081 0
19.2911 -13.4163 -14.3365 0
20.1407 -13.6612 -14.823 0
20.3276 -14.105 -15.6745 0
19.7246 -14.196 -16.079 0
20.4121 -14.7449 -16.4569 0
17.5497 -12.6457 -13.5555 0
18.4381 -13.0963 -13.8211 0
16.8025 -12.2323 -13.5501 0
16.7428 -12.8642 -14.26 0
16.9767 -13.3681 -15.1534 0
18.7917 -13.9842 -15.7201 0
19.1442 -14.5291 -16.5601 0
18.5613 -13.7164 -14.7491 0
17.8215 -13.7945 -15.3212 0
17.2882 -13.9664 -15.9846 0
18.5889 -14.8238 -17.0279 0
19.4739 -15.1616 -17.4452 0
17.7468 -14.5519 -16.8244 0
18.4455 -15.0795 -17.5932 0
19.1677 -15.5615 -18.4327 0
21.692 -15.1539 -16.4506 0
22.8667 -15.1318 -16.211 0
20.8013 -15.4901 -17.4181 0
21.0986 -15.2998 -16.8971 0
21.4839 -16.0035 -17.5651 0
21.3583 -16.9359 -19.0366 0
21.5183 -16.7583 -18.3669 0
19.8118 -15.4998 -18.4986 0
20.3462 -15.5199 -17.9702 0
19.6716 -15.681 -19.0663 0
20.0546 -16.1923 -19.8894 0
20.5425 -16.9857 -21.0005 0
20.9016 -17.0171 -19.7843 0
20.5362 -17.6972 -20.6893 0
20.7605 -16.2831 -18.8393 0
20.6408 -17 -20.4331 0
20.0649 -17.4032 -21.8894 0
19.2777 -18.8035 -22.0082 0
19.4561 -19.0191 -21.3352 0
19.3057 -18.2687 -22.2026 0
18.3096 -19.7174 -22.3151 0
17.3903 -21.3993 -22.5025 0
22.5293 -13.1855 -12.6898 0
22.6691 -12.5285 -11.6045 0
22.3643 -14.3753 -14.5174 0
22.4636 -13.8326 -13.457 0
22.7946 -13.9026 -12.6802 0
22.9836 -14.5537 -12.7977 0
22.9352 -14.1798 -11.7315 0
22.6274 -15.6689 -16.6671 0
23.1505 -15.0513 -15.6672 0
21.0374 -17.8218 -19.3936 0
21.4077 -16.4377 -17.7212 0
21.615 -16.6117 -17.1124 0
20.2058 -17.7578 -17.4394 0
21.4958 -16.5327 -16.3623 0
18.3137 -20.6827 -21.8788 0
19.6084 -19.0421 -20.7114 0
17.2543 -21.7568 -22.096 0
17.3791 -21.8287 -21.1336 0
17.514 -21.4546 -20.3456 0
19.0444 -18.5443 -18.8166 0
18.6615 -18.1785 -17.6858 0
19.391 -18.704 -19.8274 0
18.27 -19.5726 -19.8395 0
17.347 -20.638 -19.3367 0
17.3761 -18.5777 -17.4192 0
18.1851 -17.3026 -16.581 0
17.0413 -20.1325 -17.9142 0
16.6141 -19.5467 -16.6755 0
16.6627 -19.0274 -15.155 0
22.5165 -16.4333 -12.2809 0
19.1881 -16.6567 -12.3109 0
22.7402 -15.0164 -13.9692 0
22.6666 -15.5124 -13.056 0
22.7579 -14.9558 -14.8367 0
22.2725 -15.5649 -15.1444 0
20.8682 -16.1089 -15.4105 0
19.816 -16.6259 -13.4358 0
18.1233 -16.4594 -13.2565 0
21.4454 -16.3272 -13.3768 0
20.3066 -15.9868 -14.5065 0
19.2122 -16.2426 -15.5064 0
17.0789 -16.4272 -14.2622 0
16.6806 -16.223 -12.8644 0
17.6891 -16.3963 -15.5002 0
16.6306 -17.1693 -14.8403 0
16.4371 -18.7417 -13.8667 0
15.6794 -17.5154 -12.1759 0
16.0685 -16.2623 -11.6426 0
16.2056 -18.7587 -12.488 0
15.4836 -18.9036 -11.4104 0
15.3302 -18.7132 -10.4431 0
16.1647 -16.7315 -10.6896 0
20.2292 -8.82065 -28.1053 0
18.2269 -11.051 -28.9941 0
15.5121 -13.0384 -29.211 0
13.4301 -14.5783 -29.0348 0
19.1487 -10.2813 -28.3903 0
16.5533 -12.6262 -29.1738 0
17.9779 -11.4269 -28.8777 0
17.7212 -12.0535 -28.9846 0
15.9209 -14.2274 -29.5492 0
13.7735 -14.1073 -29.5959 0
15.1545 -13.5491 -29.31 0
12.7637 -15.5983 -29.1315 0
13.0314 -14.8436 -29.4767 0
12.9948 -15.3918 -30.0821 0
12.672 -16.6345 -30.4885 0
13.4114 -16.2015 -30.6138 0
14.98 -14.9641 -30.2032 0
15.2569 -15.6806 -30.7633 0
15.13 -14.2489 -29.7923 0
14.1343 -15.6466 -30.7086 0
13.8175 -16.7732 -30.9125 0
15.0211 -16.8221 -31.089 0
13.5581 -17.7458 -31.0407 0
14.3171 -17.2581 -31.0886 0
14.9941 -17.8024 -31.0813 0
14.5167 -18.9316 -31.0373 0
-5.44926 -17.4859 -28.7858 0
-5.50096 -18.7735 -25.9064 0
-6.34339 -18.8743 -26.8754 0
-5.77393 -19.4051 -25.1465 0
4.20332 -19.7665 -24.5054 0
4.4739 -20.2298 -25.1381 0
0.308846 -21.8325 -23.0318 0
0.852099 -22.1748 -23.7072 0
-3.63327 -21.4015 -23.1498 0
-3.3563 -22.1603 -22.9191 0
-4.91553 -20.2407 -23.8926 0
-5.92736 -20.0333 -24.5215 0
3.19973 -21.3854 -25.2707 0
4.7441 -20.7592 -25.6902 0
-0.709665 -22.8166 -23.6043 0
1.45145 -22.4198 -24.3832 0
2.02355 -22.6314 -25.0256 0
0.793289 -23.252 -24.9215 0
2.46188 -22.7997 -25.6623 0
-4.65749 -21.8808 -23.2098 0
-2.87813 -22.8307 -22.671 0
-6.99491 -19.8549 -25.3086 0
-5.95286 -20.702 -24.044 0
-5.84935 -21.4736 -23.7162 0
-7.12444 -21.1305 -24.3752 0
-5.66578 -22.2691 -23.551 0
-1.18534 -23.3193 -24.3504 0
-0.572923 -23.8399 -25.0464 0
-2.06004 -23.1056 -23.4442 0
-3.67542 -23.2179 -23.3072 0
-5.37104 -23.0439 -23.6894 0
-2.25265 -24.0456 -25.3718 0
-0.138725 -24.4127 -25.7312 0
-6.79456 -22.9169 -24.1809 0
-4.79786 -23.6882 -24.2572 0
-4.15809 -23.9681 -25.1831 0
-5.74454 -24.4898 -25.462 0
-3.61759 -24.0725 -26.1426 0
13.4333 -19.636 -30.8626 0
13.3655 -19.9607 -31.1675 0
12.9707 -18.3011 -30.5085 0
13.0363 -18.993 -30.8249 0
12.4413 -20.2583 -30.6165 0
11.8071 -20.693 -30.0665 0
11.7371 -21.224 -30.4174 0
12.2516 -17.216 -29.8522 0
12.5206 -17.7526 -30.3031 0
12.2132 -16.2528 -28.7704 0
12.2901 -16.6733 -29.217 0
11.786 -17.8119 -29.1042 0
11.1333 -18.445 -28.6791 0
11.2738 -18.942 -29.027 0
11.8318 -20.0285 -29.7304 0
11.2196 -21.1719 -29.4594 0
12.3588 -18.871 -29.9711 0
11.6368 -19.4521 -29.3825 0
10.8808 -20.0402 -28.7727 0
10.333 -21.2516 -28.9607 0
10.3952 -21.5795 -29.3047 0
10.1409 -20.5081 -28.1411 0
10.2801 -20.9002 -28.6229 0
9.29074 -21.1662 -28.5705 0
8.15656 -21.3015 -28.3656 0
8.4312 -21.4254 -28.576 0
12.0773 -15.9586 -28.3302 0
10.5929 -17.5262 -26.7456 0
10.6701 -17.6763 -27.2822 0
8.81638 -19.0607 -25.5904 0
8.90503 -19.3348 -26.1026 0
7.9784 -19.3265 -25.1943 0
7.14358 -19.852 -25.4582 0
7.94407 -21.3262 -28.0534 0
6.90199 -21.8495 -28.4292 0
9.92266 -20.1035 -27.7269 0
8.91759 -20.7913 -27.8611 0
7.71522 -21.5898 -27.6362 0
7.54134 -21.4325 -27.2969 0
6.60089 -22.1971 -27.5817 0
10.9897 -18.0211 -28.3615 0
10.4723 -19.0356 -28.0532 0
11.5454 -16.9659 -28.3402 0
10.8374 -17.8063 -27.8438 0
9.86106 -18.6327 -27.2694 0
8.32359 -20.4871 -27.2409 0
7.43725 -20.957 -26.9403 0
9.47218 -19.8069 -27.5041 0
9.06227 -19.5672 -27.2607 0
8.99192 -19.4365 -26.6853 0
7.39915 -20.6676 -26.4121 0
6.49724 -21.3962 -26.6763 0
8.19531 -20.0481 -26.1843 0
7.30043 -20.2919 -25.9066 0
6.13475 -20.4813 -25.7965 0
5.7281 -22.5404 -28.4568 0
5.85986 -22.3327 -28.8463 0
5.51694 -22.4619 -27.6123 0
5.56873 -22.6078 -28.0344 0
4.64974 -23.1108 -28.4384 0
3.53028 -23.8261 -28.3183 0
3.70548 -23.6732 -29.0266 0
5.28021 -21.6195 -26.6068 0
5.3687 -22.0593 -27.1621 0
4.98063 -21.2138 -26.2046 0
3.85322 -21.9511 -26.4595 0
2.78535 -23.2456 -26.3099 0
3.27373 -23.8049 -27.6469 0
1.99862 -24.6587 -27.9858 0
4.25664 -22.7615 -27.5533 0
3.02888 -23.724 -26.932 0
1.56323 -24.3211 -26.2716 0
0.0543026 -25.3967 -27.6849 0
0.424838 -25.251 -28.6442 0
-0.0132096 -24.9326 -26.6791 0
-1.60923 -24.8138 -27.0459 0
-3.15299 -24.0493 -27.0716 0
12.3972 -21.0424 -31.1465 0
11.1736 -22.059 -30.2195 0
11.7452 -21.594 -30.6764 0
11.5298 -22.2691 -31.1437 0
10.7494 -22.6555 -31.1363 0
9.52902 -21.6388 -29.1652 0
10.3736 -21.8436 -29.7021 0
7.26284 -21.663 -28.9818 0
8.54385 -21.4934 -28.8259 0
8.40571 -21.663 -29.125 0
7.27821 -20.9718 -29.754 0
8.60018 -21.8532 -29.6967 0
10.2536 -22.593 -30.6228 0
10.0485 -22.667 -31.2949 0
10.4188 -22.2248 -30.1467 0
9.71319 -22.4699 -30.0612 0
8.84492 -21.885 -30.4569 0
9.41409 -22.2989 -31.6989 0
7.85595 -20.7224 -31.3343 0
8.75904 -21.6096 -31.4898 0
8.86985 -21.5077 -32.3134 0
7.61228 -21.5539 -32.829 0
4.9073 -22.7725 -29.4959 0
5.94006 -22.1321 -29.2381 0
2.43293 -24.1621 -29.8325 0
3.79786 -23.4452 -29.7606 0
4.04679 -22.9013 -30.521 0
3.06868 -22.9471 -31.5997 0
4.30442 -21.9548 -31.1388 0
-1.03287 -24.2997 -29.1385 0
0.790707 -24.8793 -29.7161 0
-4.88205 -24.2752 -27.5059 0
-2.95951 -23.5124 -28.0665 0
-2.70917 -22.7735 -29.1138 0
-4.24974 -22.8317 -29.5513 0
-2.33536 -21.8505 -30.0756 0
1.53751 -23.4066 -31.7375 0
2.02451 -22.7097 -32.4548 0
1.0951 -24.2474 -30.8554 0
-0.179148 -22.7667 -31.2493 0
-2.03876 -21.1496 -31.0568 0
0.685885 -22.0471 -32.8186 0
2.55454 -21.9081 -32.8092 0
-3.62487 -21.7145 -31.7137 0
-1.82887 -20.7945 -32.0593 0
-1.66515 -20.6494 -32.6724 0
-3.82818 -20.958 -33.4451 0
-1.82744 -20.8192 -33.0713 0
6.4187 -21.1974 -33.0764 0
5.86493 -21.7431 -33.6094 0
6.81959 -20.4568 -31.6253 0
6.7892 -20.2582 -32.5871 0
5.3954 -21.0728 -33.2947 0
4.51844 -21.2365 -33.4328 0
3.92123 -21.7529 -33.7292 0
6.17922 -20.7534 -30.1298 0
6.449 -20.4679 -30.731 0
5.9872 -21.3741 -29.656 0
5.2746 -21.1428 -30.6074 0
4.60211 -20.8861 -31.5524 0
5.01231 -20.6128 -32.9867 0
3.40855 -21.6188 -33.5412 0
5.92268 -20.3901 -31.9117 0
4.90978 -20.9119 -32.2455 0
3.85865 -21.4775 -32.5467 0
2.12175 -22.1119 -33.6134 0
1.68819 -22.4911 -33.7391 0
2.79406 -21.5758 -33.4221 0
0.412312 -21.6568 -33.3811 0
-1.77783 -21.2984 -33.0891 0
4.45385 -22.019 -34.1488 0
2.45294 -22.4606 -33.9029 0
3.45651 -22.2269 -34.0147 0
3.18815 -22.5271 -34.0882 0
1.93643 -23.2032 -33.9232 0
0.0740336 -22.3982 -33.2928 0
1.39445 -22.6645 -33.6958 0
-2.67036 -22.147 -32.9139 0
-1.54812 -22.0656 -32.9453 0
-1.1298 -22.9207 -32.8115 0
-1.60065 -24.16 -32.3908 0
-0.655876 -23.8446 -32.6996 0
1.15763 -23.3868 -33.4827 0
1.16363 -24.1762 -33.197 0
1.29469 -22.9937 -33.6175 0
0.257839 -23.5863 -33.078 0
-0.251581 -24.728 -32.35 0
0.455116 -25.1868 -32.478 0
-0.47949 -25.9015 -31.5845 0
0.0146264 -25.5093 -32.0722 0
0.348395 -26.2036 -31.8315 0
0.23691 -27.1129 -31.2322 0
-6.33978 -17.513 -29.9401 0
-8.6408 -17.8794 -29.7854 0
-7.40828 -17.7322 -29.8524 0
-6.76702 -18.2704 -28.9659 0
-7.2378 -18.9116 -27.9363 0
-16.4268 -20.961 -31.1824 0
-15.1565 -20.0362 -31.6281 0
-14.3962 -20.1663 -31.628 0
-15.8837 -20.5483 -31.6231 0
-15.932 -21.0433 -31.5395 0
-14.4865 -20.8146 -31.808 0
-13.4976 -20.2724 -31.5544 0
-15.9719 -21.5738 -31.446 0
-15.3259 -21.1475 -31.7385 0
-14.5363 -21.3323 -31.7557 0
-14.5275 -21.9123 -31.617 0
-13.6159 -21.603 -31.6656 0
-8.20909 -19.1509 -28.6909 0
-7.73922 -19.3188 -27.0096 0
-9.70113 -18.1314 -29.9179 0
-8.81055 -18.7791 -29.6956 0
-9.10839 -19.4025 -29.2442 0
-10.0741 -19.6765 -29.6477 0
-9.53227 -19.9319 -28.6534 0
-12.3315 -18.9369 -30.6704 0
-10.5743 -19.5184 -30.3814 0
-11.1717 -19.8882 -30.0476 0
-10.5216 -18.6548 -30.1987 0
-11.3659 -19.2254 -30.5601 0
-12.4174 -19.6566 -31.0746 0
-11.9697 -20.2864 -30.7903 0
-11.5885 -20.2877 -29.9287 0
-12.5774 -20.3422 -31.3333 0
-12.9096 -20.8241 -31.4332 0
-12.9478 -21.4952 -31.3716 0
-8.11976 -19.7191 -26.2607 0
-10.0489 -20.4072 -27.9922 0
-9.17681 -19.9585 -27.1459 0
-8.24338 -20.3886 -25.7897 0
-8.34375 -21.0935 -25.4195 0
-11.9047 -20.7712 -29.6201 0
-11.086 -20.5326 -28.6758 0
-13.23 -22.0803 -31.0277 0
-12.6088 -21.2099 -30.6778 0
-12.2802 -21.2128 -29.3172 0
-12.5354 -21.8753 -29.1257 0
-11.7241 -21.3786 -28.0913 0
-9.55557 -21.1286 -26.3709 0
-8.29129 -21.8658 -25.2026 0
-10.4814 -20.788 -27.4943 0
-10.786 -21.0956 -27.1987 0
-11.0726 -21.5022 -26.9476 0
-8.17665 -22.6363 -25.0693 0
-10.8091 -22.3031 -27.1863 0
-9.55405 -22.3921 -26.1433 0
-7.7329 -23.6655 -25.5161 0
-7.24684 -24.5385 -26.1557 0
-8.75287 -24.0089 -27.1346 0
-6.72991 -24.6101 -27.2512 0
-11.807 -22.9746 -28.0941 0
-10.5565 -23.1074 -27.41 0
-10.1971 -23.7533 -28.0446 0
-11.2253 -24.2159 -28.8387 0
-9.51556 -24.3646 -28.9928 0
-13.311 -22.2153 -29.8023 0
-12.6858 -22.4919 -29.0836 0
-13.6594 -22.6353 -31.06 0
-13.4992 -22.4642 -30.4732 0
-13.7357 -22.7556 -29.8821 0
-13.8256 -23.3134 -29.72 0
-13.5361 -23.3407 -29.6948 0
-12.3888 -23.5782 -29.4435 0
-11.5887 -24.3173 -29.8643 0
-12.8377 -22.9418 -29.0675 0
-13.1577 -23.3869 -29.4398 0
-13.0665 -24.0142 -29.4828 0
-11.6521 -24.8082 -29.8998 0
-11.0203 -24.7653 -30.3722 0
-12.8421 -24.6416 -29.2073 0
-12.4068 -24.6748 -29.6094 0
-11.6541 -25.3305 -29.829 0
-11.2382 -25.9055 -29.5576 0
-10.7672 -25.811 -30.206 0
-15.1151 -22.2641 -31.2822 0
-14.2253 -22.5084 -31.2274 0
-16.113 -22.0878 -30.654 0
-15.6046 -22.1759 -31.0383 0
-15.1675 -22.7672 -30.4662 0
-14.9594 -23.314 -29.3999 0
-14.5405 -23.3991 -29.7689 0
-16.5056 -21.9093 -30.2361 0
-11.5866 -26.0056 -28.8788 0
-10.3889 -26.2768 -29.2339 0
-13.0924 -24.6063 -28.9006 0
-12.3969 -25.3739 -28.7656 0
-11.6884 -25.8658 -28.17 0
-11.4331 -25.353 -27.4021 0
-10.7077 -26.027 -27.7356 0
-14.0479 -23.3683 -29.9797 0
-13.5719 -23.9563 -29.2471 0
-14.1021 -22.9681 -30.6768 0
-14.2292 -23.4449 -30.1157 0
-13.8754 -24.031 -28.9477 0
-12.275 -24.7922 -27.6581 0
-11.2984 -25.0434 -26.7585 0
-13.225 -24.5306 -28.5249 0
-13.3301 -24.5109 -28.1922 0
-13.4068 -24.4861 -27.8628 0
-9.48105 -26.7978 -28.9016 0
-9.04827 -26.8507 -29.6191 0
-9.77018 -26.4819 -27.5065 0
-9.6797 -26.6357 -28.1578 0
-8.48133 -27.4945 -28.4236 0
-7.38455 -28.2704 -28.0034 0
-6.98628 -28.2115 -28.1958 0
-7.88332 -28.0909 -28.2066 0
-6.14038 -24.4023 -28.4837 0
-8.88921 -24.5605 -30.2853 0
-7.42807 -24.4814 -29.5165 0
-5.72695 -24.472 -29.5988 0
-5.55408 -23.6505 -30.6311 0
-10.4808 -25.1249 -30.9881 0
-10.0778 -24.8433 -30.8134 0
-9.5508 -26.1359 -30.8456 0
-10.13 -25.6126 -30.8369 0
-9.79421 -25.141 -32.036 0
-9.23705 -24.8416 -33.1125 0
-9.5363 -24.2021 -33.1845 0
-7.20785 -23.9017 -31.9369 0
-5.55515 -22.8444 -31.7475 0
-8.85824 -24.3145 -31.6574 0
-8.74385 -23.9487 -32.8396 0
-8.47496 -23.5786 -33.8941 0
-5.44696 -22.4484 -32.6784 0
-7.68401 -23.9812 -34.4322 0
-6.98877 -22.935 -33.8733 0
-5.414 -22.0424 -33.5136 0
-4.95651 -21.749 -34.1331 0
-7.77438 -27.022 -30.0228 0
-8.72466 -26.6081 -30.524 0
-6.09252 -28.3313 -28.7846 0
-6.65983 -27.4063 -29.2176 0
-6.41798 -26.7357 -30.3076 0
-5.42162 -26.9115 -31.0281 0
-6.34875 -26.0331 -31.5195 0
-5.81327 -29.1572 -28.8301 0
-4.75392 -27.8576 -30.7469 0
-4.63796 -26.9033 -32.0766 0
-5.23756 -28.5994 -29.6433 0
-4.42317 -28.7858 -30.9127 0
-4.4564 -27.0802 -33.6715 0
-4.96247 -26.2489 -33.6394 0
-4.05125 -27.7058 -33.8466 0
-4.29698 -27.1139 -35.1885 0
-3.93971 -26.4316 -36.1865 0
-5.80676 -22.8188 -34.5327 0
-4.46093 -22.0357 -34.0492 0
-8.04644 -24.9917 -34.7137 0
-6.97904 -24.0511 -34.5809 0
-6.11283 -23.8972 -34.9498 0
-6.18931 -24.8616 -35.3383 0
-4.79036 -23.5441 -35.4544 0
-8.65694 -25.3907 -32.9988 0
-8.45747 -24.9471 -33.9862 0
-8.6075 -26.0738 -31.5895 0
-7.6292 -25.7705 -32.4092 0
-6.60658 -25.5187 -32.9561 0
-6.60804 -25.188 -34.8628 0
-5.53431 -25.3716 -35.3877 0
-7.58849 -25.1708 -34.5006 0
-6.7936 -25.2184 -34.2272 0
-5.78139 -25.7003 -33.8812 0
-4.90254 -25.7062 -35.6917 0
-4.10677 -25.0111 -35.8918 0
-5.32279 -26.262 -35.013 0
-4.39177 -26.0126 -36.0629 0
-3.54085 -25.8974 -36.8339 0
-3.63642 -22.738 -33.4995 0
-4.22439 -24.1146 -35.0576 0
-4.30207 -23.3027 -34.382 0
-2.67735 -24.0376 -32.7175 0
-1.98717 -25.2848 -32.2331 0
-3.31732 -24.9473 -36.2587 0
-3.76903 -24.6541 -35.5472 0
-3.03679 -25.5448 -36.6221 0
-2.67397 -26.441 -35.1462 0
-2.11963 -27.6986 -33.5211 0
-2.19007 -26.2468 -32.467 0
-1.19941 -26.2108 -31.6593 0
-3.07468 -25.4029 -34.2007 0
-1.95096 -26.8701 -33.2592 0
-1.62842 -28.3051 -32.0328 0
-0.573711 -27.0197 -31.0691 0
-0.637091 -28.0715 -30.8628 0
-0.11646 -27.5627 -31.0227 0
-3.27461 -28.1688 -36.4115 0
-3.76132 -28.627 -34.7708 0
-3.72837 -28.135 -34.1449 0
-2.03809 -27.9825 -37.5069 0
-2.76655 -27.6126 -36.9936 0
0.570561 -33.1028 -34.7402 0
-0.229146 -33.1552 -34.5237 0
-0.272323 -33.1508 -34.0578 0
-0.193987 -33.062 -33.6391 0
-0.832465 -32.603 -33.5983 0
-1.70116 -28.9971 -36.8739 0
-1.78577 -29.643 -37.2825 0
-1.68011 -30.4426 -36.743 0
-1.5823 -30.7998 -35.5598 0
-1.48001 -31.6192 -34.8687 0
-1.13773 -31.9125 -33.9982 0
2.1708 -32.5875 -36.2249 0
1.55767 -32.6201 -35.6675 0
3.47845 -32.0242 -37.2816 0
2.80721 -32.341 -36.9888 0
3.2692 -31.2082 -37.4529 0
8.04451 -30.2623 -35.1521 0
7.52353 -29.7194 -35.3545 0
8.57364 -30.9672 -35.0396 0
9.02503 -30.5322 -34.136 0
9.57099 -29.9604 -33.2336 0
9.95078 -30.1582 -32.986 0
10.4447 -29.9146 -31.9941 0
10.8311 -30.2078 -31.7111 0
11.6176 -30.1749 -30.5352 0
11.4934 -29.8504 -30.7964 0
11.2088 -30.7557 -30.0974 0
11.0683 -30.9476 -28.9484 0
11.5258 -30.4279 -28.164 0
11.6698 -29.0373 -26.0213 0
5.02084 -29.4482 -36.9841 0
4.66572 -30.3696 -37.2481 0
5.76227 -29.4818 -36.8331 0
6.51947 -29.356 -36.3656 0
7.20688 -29.4416 -36.076 0
14.1509 -28.1551 -15.1445 0
13.7374 -28.894 -15.3651 0
10.8294 -28.4123 -19.7067 0
9.90672 -29.0988 -18.3782 0
9.30385 -29.4827 -17.3951 0
9.91828 -30.1814 -17.1738 0
10.4469 -30.1835 -18.8235 0
10.1726 -30.9982 -18.6919 0
9.83928 -30.6487 -17.968 0
13.2861 -29.6699 -15.6022 0
12.2063 -28.9202 -15.3189 0
12.51 -29.7393 -15.5209 0
11.4014 -29.0552 -15.4415 0
10.6813 -29.3052 -15.7247 0
10.2202 -29.7457 -16.428 0
12.2298 -29.7179 -25.0881 0
12.0841 -28.9969 -23.9064 0
12.1977 -29.5922 -24.0514 0
12.1382 -29.5244 -23.0248 0
11.9192 -30.4242 -27.2261 0
12.3136 -30.404 -26.2693 0
10.993 -30.1926 -19.6014 0
11.2574 -29.3331 -19.9805 0
11.4588 -28.6119 -20.6236 0
11.6655 -28.0639 -21.4286 0
11.913 -28.6576 -21.6173 0
11.9547 -29.1039 -21.8576 0
13.7938 -28.7237 -14.5214 0
15.0691 -27.1343 -14.2812 0
17.5217 -23.814 -11.7956 0
18.0624 -22.7878 -11.834 0
18.9342 -21.9958 -11.166 0
15.6903 -26.5306 -13.2693 0
16.3553 -25.653 -12.1783 0
15.1717 -27.5236 -13.4732 0
14.3846 -28.3477 -13.6055 0
16.9219 -24.7523 -11.8834 0
17.8428 -21.5621 -11.1494 0
17.2979 -21.0999 -10.3136 0
16.2605 -20.4015 -10.0833 0
16.2955 -19.639 -9.40761 0
16.1666 -18.6662 -9.40334 0
22.0162 -6.93739 -26.6994 0
22.6678 -6.35946 -25.6129 0
23.6998 -6.256 -24.4405 0
25.0464 -6.26651 -23.0564 0
26.5363 -6.52614 -21.4986 0
26.473 -7.37852 -21.1316 0
26.3642 -7.504 -20.7172 0
24.2161 -7.57896 -19.9333 0
22.9897 -7.00658 -19.5175 0
19.7921 -6.02585 -18.4995 0
17.4904 -5.56369 -17.926 0
21.9397 -6.39446 -19.0626 0
12.6929 -3.67743 -13.969 0
12.9765 -4.08248 -13.6413 0
12.6227 -3.3751 -14.5567 0
12.6359 -3.91179 -15.7179 0
12.5817 -4.78471 -16.1749 0
13.3061 -4.48818 -16.5638 0
14.8329 -5.11241 -17.199 0
16.4781 -5.77756 -17.7763 0
13.6931 -4.66519 -13.3653 0
22.9826 -8.52334 -12.9601 0
23.0957 -8.88073 -12.1279 0
22.9448 -8.12858 -13.6097 0
21.687 -8.23736 -13.9529 0
20.4304 -8.45742 -14.3613 0
21.5007 -7.72578 -14.4032 0
21.24 -7.04416 -14.703 0
19.9831 -7.07044 -14.8203 0
16.9758 -5.00673 -13.8129 0
18.4301 -5.82948 -14.5326 0
19.7244 -6.17674 -14.8499 0
18.1277 -5.04108 -14.1677 0
15.9977 -5.19035 -13.0886 0
15.0199 -5.31735 -12.5518 0
17.7654 -4.36306 -13.79 0
17.3195 -3.78655 -13.4564 0
16.0601 -3.84799 -13.2399 0
14.9318 -3.89037 -13.0837 0
13.793 -3.95109 -13.1495 0
23.2268 -9.2611 -11.3077 0
23.4802 -10.1632 -10.858 0
23.6409 -11.0076 -10.4303 0
23.0071 -11.8591 -10.7824 0
23.2019 -12.6567 -10.8136 0
23.248 -13.5217 -10.9531 0
23.1269 -14.5251 -11.1045 0
22.7437 -15.7121 -11.1757 0
21.949 -16.7796 -11.4653 0
20.2501 -17.0121 -11.4052 0
18.5807 -15.9796 -11.1718 0
17.027 -15.767 -10.9291 0
17.2018 -15.8591 -10.2507 0
16.4857 -16.5707 -9.67172 0
15.6957 -17.716 -10.2078 0
15.6806 -18.3745 -9.69235 0
21.2323 -7.67654 -27.7184 0
12.7964 -15.0277 -28.2483 0
13.6447 -14.3659 -28.6043 0
20.3828 -8.75788 -28.5006 0
19.4309 -9.7682 -28.7988 0
18.334 -10.7659 -29.0498 0
16.871 -12.114 -29.1792 0
17.0308 -11.7126 -29.1174 0
