#!ascii - generated by CreateLabelFiles project 
2153 4102
11.3409 -16.3401 -21.4106 0
12.6672 -15.1467 -20.9942 0
10.5488 -17.4886 -22.1281 0
11.2174 -15.8177 -20.5664 0
12.1207 -15.0527 -19.8612 0
13.7376 -14.0357 -20.2616 0
14.0241 -13.8368 -20.6643 0
12.7884 -14.7615 -19.4993 0
13.3408 -14.3381 -19.8771 0
14.7775 -13.5921 -20.3295 0
15.9492 -13.6312 -20.1602 0
16.279 -12.6969 -20.926 0
7.43169 -20.9585 -20.1668 0
7.58557 -19.6665 -20.193 0
8.23088 -23.2975 -20.8051 0
7.60782 -22.1602 -20.4854 0
7.81285 -20.4629 -19.1005 0
8.28128 -20.5494 -18.3592 0
8.35009 -18.9804 -18.0204 0
9.65234 -25.1587 -21.254 0
9.01136 -24.2688 -21.0638 0
10.6486 -26.7129 -21.2925 0
10.1527 -26.0483 -21.3461 0
9.87073 -25.0338 -20.2118 0
9.79301 -25.1695 -19.1785 0
9.51587 -23.9785 -18.9951 0
8.44613 -21.8856 -18.6322 0
8.75214 -20.5655 -17.5772 0
8.68842 -23.0327 -19.819 0
9.21948 -22.814 -18.8894 0
9.10682 -23.0375 -17.7875 0
9.14226 -20.9622 -16.998 0
8.95681 -19.7095 -16.8533 0
9.23242 -23.5107 -16.907 0
9.47006 -21.9409 -16.8302 0
9.88262 -21.0505 -16.0881 0
10.4287 -21.76 -15.3756 0
10.3692 -20.6933 -15.8382 0
15.1964 -14.549 -19.4932 0
16.6691 -14.4524 -19.9226 0
12.0877 -15.3516 -18.7781 0
13.5766 -15.0634 -19.1722 0
14.3116 -15.6848 -18.9379 0
12.9751 -16.4354 -18.4827 0
14.5865 -16.9149 -19.1347 0
9.56462 -16.3964 -18.6814 0
10.7832 -15.6531 -18.5148 0
8.1861 -17.5906 -19.1623 0
8.81563 -17.4402 -18.0887 0
9.35057 -17.5837 -17.2306 0
11.5531 -16.3666 -17.8834 0
11.8591 -17.6104 -17.7126 0
11.0828 -15.8956 -18.1229 0
10.4343 -16.8338 -17.322 0
9.66015 -18.4105 -17.0525 0
10.852 -18.5436 -16.8974 0
12.1376 -18.7084 -17.7843 0
9.7589 -19.0838 -16.635 0
9.9424 -19.8328 -16.4416 0
11.0499 -20.4708 -15.8139 0
17.0162 -15.3486 -19.7796 0
17.7819 -14.4894 -20.6089 0
14.7305 -18.0731 -19.1477 0
15.8959 -16.8239 -19.5255 0
16.9644 -16.6832 -19.8213 0
16.8623 -17.8808 -20.0328 0
17.669 -16.5637 -20.7585 0
12.4187 -19.3815 -17.8305 0
13.4612 -19.02 -18.5873 0
11.8119 -21.3312 -15.3128 0
12.1827 -20.2085 -16.4511 0
13.3087 -20.1827 -17.0012 0
13.9793 -21.1118 -16.283 0
14.3243 -20.4339 -17.8578 0
15.815 -18.9004 -19.6723 0
16.6243 -18.8954 -20.6216 0
14.7221 -18.9524 -19.0695 0
14.8672 -19.8353 -19.0984 0
14.8353 -20.638 -18.9688 0
16.3398 -20.0255 -20.9425 0
17.3625 -18.7108 -21.495 0
14.9347 -21.2971 -18.5448 0
15.419 -20.9094 -20.0233 0
16.1413 -21.0225 -21.0958 0
16.1019 -21.6606 -20.9777 0
16.9353 -20.9933 -21.9978 0
15.4639 -22.4732 -19.488 0
16.0472 -22.3107 -20.5317 0
14.7169 -22.2315 -16.9653 0
15.0125 -22.3801 -18.2557 0
15.1103 -23.4369 -17.9335 0
14.9381 -24.3822 -16.6274 0
15.3995 -24.0888 -17.4824 0
13.09 -22.2554 -15.1961 0
14.0561 -22.2032 -15.9877 0
11.3088 -22.6557 -14.7054 0
12.1595 -22.43 -14.8003 0
12.6292 -23.6993 -14.8695 0
12.2137 -25.1086 -14.5977 0
13.0411 -24.8589 -14.9066 0
14.4089 -24.5384 -16.0246 0
14.5479 -25.8303 -16.3268 0
14.3049 -23.3644 -15.9234 0
13.8222 -24.6423 -15.3667 0
13.2822 -26.0251 -14.9735 0
14.3215 -26.875 -15.8782 0
14.8481 -26.3344 -16.1241 0
13.0928 -27.2394 -14.9773 0
13.7211 -27.0762 -15.3567 0
14.1042 -27.7449 -15.4156 0
9.87868 -23.6025 -15.6143 0
10.5752 -22.994 -14.9421 0
8.94367 -25.0511 -17.1985 0
9.23076 -24.3316 -16.3317 0
9.39955 -25.2823 -15.9182 0
9.03384 -26.8288 -16.2088 0
9.72364 -26.1495 -15.4709 0
9.96103 -26.2674 -19.3244 0
9.05608 -25.7606 -18.2159 0
11.0987 -27.4015 -21.3496 0
10.4995 -26.9005 -20.3599 0
10.2794 -27.3469 -19.5019 0
10.0526 -28.1208 -18.7585 0
8.91999 -27.4144 -17.0827 0
9.11905 -28.1489 -16.7067 0
8.87539 -26.5593 -17.5357 0
9.42583 -27.8384 -17.8777 0
9.63444 -28.7943 -16.4078 0
9.67725 -29.77 -18.1123 0
12.4267 -27.5335 -14.9085 0
12.9707 -28.5831 -15.3822 0
11.3461 -25.3783 -14.6285 0
11.6859 -26.4624 -14.3561 0
10.9143 -24.1857 -14.7966 0
10.4274 -25.7046 -14.8625 0
10.1338 -27.0964 -15.006 0
11.5833 -27.7703 -14.8781 0
10.7654 -27.9439 -15.0768 0
10.0958 -28.328 -15.6773 0
11.9347 -28.2839 -23.7504 0
11.5518 -27.8382 -22.4932 0
12.0899 -29.7306 -26.0845 0
12.0618 -29.0305 -24.8981 0
12.0696 -28.9968 -22.7756 0
15.9928 -22.8511 -19.8505 0
16.6759 -21.9221 -21.3287 0
15.6407 -24.4709 -17.1711 0
15.7867 -23.7525 -18.4993 0
16.246 -23.3601 -19.4118 0
16.4449 -23.4919 -18.8313 0
16.7159 -22.6156 -20.119 0
15.1506 -26.762 -15.8327 0
15.3797 -25.671 -16.5411 0
14.6429 -27.7803 -14.4527 0
14.7324 -27.2454 -15.1887 0
15.1785 -26.4627 -15.058 0
15.6098 -26.0694 -14.0814 0
15.5931 -25.7161 -15.065 0
16.1833 -24.0983 -17.4427 0
16.63 -23.1516 -18.0826 0
15.8433 -24.9113 -16.9247 0
15.9091 -25.2048 -16.3252 0
16.0192 -24.7519 -15.1276 0
16.7248 -22.7394 -16.7706 0
16.854 -21.6715 -18.1611 0
16.6224 -24.0167 -13.7792 0
16.4987 -23.4997 -15.1672 0
17.0728 -22.2274 -15.3758 0
17.5034 -21.7274 -13.9921 0
16.8528 -20.6611 -15.343 0
17.6903 -22.2885 -12.7491 0
17.5246 -21.4349 -12.8375 0
16.7614 -24.4073 -12.729 0
17.3183 -23.2769 -12.6546 0
16.2418 -25.374 -12.9794 0
17.1432 -21.2801 -11.8974 0
16.8967 -20.1585 -12.7426 0
16.6205 -20.9417 -11.0147 0
15.6363 -19.7627 -10.7421 0
21.6074 -6.91545 -26.1844 0
23.534 -6.58478 -23.903 0
23.4632 -7.77615 -19.5477 0
22.2813 -7.16818 -19.1643 0
20.1246 -8.80799 -27.7055 0
19.6403 -9.20764 -27.475 0
20.5088 -7.52651 -26.7427 0
17.5418 -12.3774 -28.9834 0
17.7035 -13.241 -29.2176 0
18.8198 -10.9478 -28.3375 0
19.3605 -9.52387 -27.4353 0
18.9664 -9.9871 -27.433 0
19.418 -8.47111 -26.4245 0
15.6897 -15.9249 -30.9288 0
16.1386 -16.3293 -30.6871 0
16.6872 -14.9601 -30.167 0
15.5034 -18.0004 -30.9675 0
15.6208 -18.5333 -30.9927 0
15.9968 -17.3568 -30.7876 0
16.5319 -16.7672 -30.4737 0
17.0575 -17.1119 -30.068 0
17.3568 -15.863 -29.8302 0
18.3227 -12.1827 -28.362 0
18.0952 -10.7725 -27.2202 0
17.5298 -13.7185 -29.2903 0
17.6342 -14.1124 -29.2327 0
17.8526 -14.4367 -29.0126 0
17.8895 -11.0795 -27.137 0
17.9835 -9.31307 -25.9302 0
17.9209 -14.732 -28.2992 0
17.9469 -12.8335 -28.0458 0
17.3408 -11.1844 -26.6049 0
16.6801 -11.1872 -25.8655 0
17.2803 -9.39021 -24.7009 0
24.7264 -8.26672 -19.8656 0
22.5641 -8.16021 -19.5025 0
26.1509 -6.82898 -21.6671 0
26.392 -7.83222 -20.7394 0
25.75 -8.52544 -20.1746 0
26.2626 -8.28907 -20.8389 0
25.067 -9.0738 -19.9173 0
21.9253 -6.93047 -24.5278 0
23.5722 -6.58972 -23.1618 0
20.9949 -7.0342 -25.7369 0
20.3274 -7.38899 -25.387 0
19.4638 -7.59178 -25.2383 0
24.5779 -7.12048 -21.811 0
25.532 -7.90923 -21.5596 0
23.7904 -6.5555 -22.3672 0
21.3764 -6.92061 -23.4918 0
19.143 -7.67423 -24.7618 0
22.7321 -7.48458 -22.091 0
26.3942 -8.62845 -21.433 0
19.0544 -7.75005 -24.0941 0
19.4559 -7.87528 -23.2549 0
20.2769 -8.05172 -22.4106 0
21.699 -8.50762 -19.4968 0
20.4897 -7.85158 -19.1085 0
24.2693 -9.45346 -19.8608 0
23.0014 -9.02755 -19.6748 0
21.1854 -8.84689 -19.0605 0
20.7997 -9.20698 -18.7576 0
19.3456 -8.44076 -18.5707 0
25.9756 -9.17173 -21.2634 0
25.1913 -9.5082 -20.3366 0
21.4656 -8.42308 -21.8554 0
24.9665 -8.70947 -21.7917 0
25.5641 -9.67319 -21.3505 0
25.3338 -10.0606 -21.7442 0
24.5027 -10.4863 -20.5726 0
22.1061 -9.82067 -19.2692 0
20.4439 -9.48046 -18.9868 0
23.7754 -9.88318 -19.7014 0
23.3699 -10.2468 -19.8586 0
22.9513 -10.5971 -20.1779 0
20.1659 -9.87475 -19.1041 0
18.8202 -9.17757 -18.5418 0
22.5126 -11.0082 -20.4242 0
21.2841 -10.4997 -19.7663 0
19.6784 -10.323 -19.2896 0
19.2251 -10.8646 -19.5114 0
18.075 -10.2044 -18.9126 0
13.4182 -20.3433 -31.2847 0
13.6399 -21.0845 -31.2592 0
14.6543 -19.7545 -31.1013 0
11.4476 -22.576 -31.492 0
11.5918 -22.3367 -31.6974 0
12.4964 -22.0519 -31.555 0
13.7047 -21.3932 -31.4503 0
13.7067 -21.8701 -31.6407 0
15.0176 -21.0223 -31.0525 0
10.089 -22.4081 -31.8257 0
10.2861 -21.9249 -32.3765 0
10.8618 -22.2656 -31.9792 0
8.67402 -21.9301 -32.6879 0
8.17855 -22.2349 -33.0489 0
9.49402 -22.2147 -32.6132 0
10.2 -22.392 -32.7713 0
10.1217 -22.8345 -33.0857 0
10.9673 -22.5455 -33.1325 0
12.6167 -22.2377 -32.1408 0
13.5609 -22.3739 -32.1321 0
11.742 -22.0876 -32.1254 0
11.759 -22.301 -32.6698 0
11.7887 -22.7199 -33.5305 0
13.5244 -22.628 -32.548 0
14.4859 -21.983 -31.6511 0
11.6696 -23.2043 -33.6109 0
12.6317 -22.8381 -33.4454 0
13.4487 -22.8958 -32.9218 0
13.1807 -23.6032 -33.2198 0
14.2547 -22.9847 -32.3742 0
5.51005 -22.0078 -34.0141 0
5.02461 -22.2209 -34.3963 0
6.57337 -22.1931 -33.6956 0
2.8683 -22.8363 -34.2121 0
2.55329 -23.5213 -34.1558 0
3.75632 -22.6816 -34.4338 0
4.58897 -22.4103 -34.6924 0
4.25045 -22.8398 -34.6486 0
5.56428 -22.5189 -34.4197 0
1.0685 -24.7304 -33.0842 0
1.16592 -25.444 -33.1226 0
1.75953 -24.4782 -33.6389 0
0.558849 -26.6761 -31.7595 0
0.917372 -26.4094 -32.403 0
1.32512 -26.1639 -33.0708 0
1.78433 -25.6473 -33.7449 0
3.09911 -23.6522 -34.5768 0
3.93171 -23.2943 -34.8369 0
2.36776 -24.0874 -34.1978 0
2.31551 -24.6681 -34.2034 0
2.35811 -25.0562 -34.3608 0
3.59519 -23.6891 -35.0883 0
4.68153 -22.8975 -35.0806 0
2.89095 -24.5649 -34.9022 0
3.32895 -24.2565 -35.2785 0
4.14573 -23.8213 -35.5112 0
12.1301 -23.9957 -33.3799 0
13.0077 -24.0632 -33.1816 0
10.73 -23.4802 -33.3436 0
11.4388 -23.7282 -33.3638 0
11.0109 -24.1863 -32.97 0
9.42866 -23.795 -33.1366 0
10.7231 -24.4328 -32.7358 0
8.80247 -22.8469 -33.3748 0
9.83661 -23.1735 -33.3725 0
7.71627 -22.449 -33.4074 0
7.10019 -22.5099 -33.6683 0
6.49476 -22.6431 -34.0913 0
8.34962 -23.2135 -33.4117 0
7.55368 -22.8514 -33.8416 0
9.122 -23.2844 -33.3073 0
7.37582 -22.7375 -33.7385 0
5.86348 -22.7032 -34.5224 0
6.23901 -22.7664 -34.8549 0
7.30695 -22.8949 -34.2025 0
5.41473 -22.6894 -35.1426 0
5.1144 -22.8705 -35.5746 0
5.03241 -23.4455 -35.6053 0
13.0886 -24.4317 -32.7578 0
13.8727 -23.7334 -32.2449 0
10.5018 -24.587 -32.6371 0
11.9211 -24.5342 -32.6394 0
12.9662 -24.5741 -32.2321 0
12.7538 -24.5943 -31.666 0
13.539 -24.115 -31.0988 0
7.31551 -22.9609 -34.3854 0
8.91392 -23.9142 -33.2325 0
6.1047 -23.2263 -35.2824 0
7.44682 -23.19 -34.4213 0
9.05741 -24.8889 -32.6953 0
11.6814 -24.8752 -31.9584 0
12.5068 -24.6528 -31.1376 0
10.4193 -24.7902 -32.4109 0
10.3878 -25.1168 -32.1318 0
10.3781 -25.2439 -31.8336 0
12.1586 -24.6244 -30.591 0
12.9745 -23.978 -29.9306 0
11.4086 -25.1463 -31.1172 0
11.5705 -24.3685 -30.0371 0
11.716 -23.4492 -28.7998 0
20.3116 -11.3717 -20.1106 0
18.7709 -11.4444 -19.6826 0
23.561 -11.2593 -21.1242 0
21.9006 -11.2357 -20.5903 0
21.4142 -11.6418 -20.7581 0
22.4831 -11.7238 -21.5639 0
21.0651 -11.9097 -20.9613 0
25.8541 -9.58118 -22.688 0
24.8025 -10.6098 -21.8961 0
17.8148 -9.28808 -23.0422 0
22.9618 -9.08968 -21.9261 0
23.8652 -9.45092 -22.6199 0
19.6178 -9.65839 -22.2277 0
24.4966 -9.83804 -23.0532 0
23.7022 -11.4097 -22.2748 0
23.332 -11.7417 -22.6023 0
24.205 -11.0913 -21.9608 0
24.9486 -10.8106 -22.908 0
24.6081 -10.3251 -23.4437 0
24.2241 -11.7179 -23.5649 0
23.2167 -12.2267 -23.0495 0
21.4183 -10.2827 -22.5197 0
24.7912 -10.7791 -23.8478 0
24.8027 -11.3662 -24.1634 0
22.9429 -10.7682 -23.6041 0
24.4693 -11.8717 -24.4972 0
16.698 -12.8888 -26.6919 0
16.2597 -11.2042 -25.0715 0
17.6436 -16.3693 -28.7829 0
17.5851 -14.8338 -27.6491 0
17.0584 -14.7889 -27.1838 0
17.0716 -16.8304 -28.025 0
16.5775 -14.929 -26.7507 0
16.7429 -18.3218 -30.3789 0
17.342 -17.4927 -29.7274 0
15.8064 -19.0503 -30.7959 0
16.003 -19.6419 -30.5763 0
16.0317 -20.515 -30.6698 0
17.0902 -18.6895 -29.4371 0
16.9291 -19.0285 -29.0474 0
17.2677 -18.0849 -29.5909 0
16.5023 -19.7314 -30.1163 0
15.695 -21.1568 -30.899 0
16.4726 -20.9268 -30.1033 0
16.9787 -19.2362 -28.5654 0
15.3667 -21.6437 -31.1877 0
15.3705 -22.0366 -31.2277 0
15.3482 -22.323 -31.0331 0
17.6527 -10.8823 -22.2062 0
18.6958 -10.7609 -22.2114 0
15.8996 -11.0264 -22.6419 0
16.652 -10.9571 -22.3439 0
14.7989 -13.2422 -23.3415 0
14.7933 -15.5423 -24.9628 0
14.3867 -15.4206 -24.3637 0
15.8283 -11.4461 -23.8772 0
15.7067 -11.2389 -23.1987 0
15.9159 -11.2657 -24.4603 0
15.4264 -12.985 -25.7017 0
16.2181 -15.1609 -26.3858 0
15.0378 -15.4813 -25.5492 0
15.3936 -17.6767 -26.4495 0
14.9238 -13.2752 -24.527 0
15.7707 -15.3476 -25.9263 0
16.5673 -17.343 -27.2349 0
16.27 -19.6952 -27.9846 0
15.7091 -19.9254 -27.5483 0
16.6445 -19.4769 -28.3091 0
16.5447 -21.334 -29.308 0
15.2363 -22.65 -30.9508 0
15.4064 -12.3779 -22.3505 0
19.6107 -10.8182 -22.5858 0
14.3622 -17.6841 -25.3564 0
14.0913 -14.9228 -23.5224 0
14.0926 -13.9214 -22.5269 0
13.8058 -16.343 -23.6234 0
14.6566 -13.1145 -21.934 0
15.6148 -22.1291 -28.7166 0
15.1911 -20.1863 -27.0557 0
14.7419 -23.0848 -30.7346 0
14.5339 -23.4733 -30.2154 0
14.2453 -23.5204 -29.6394 0
14.25 -19.6653 -25.55 0
13.7978 -19.0184 -24.7126 0
14.6863 -20.1517 -26.3896 0
14.6238 -22.1667 -27.7054 0
13.8492 -23.2016 -28.9371 0
13.4984 -21.0768 -26.0805 0
13.2782 -18.3204 -24.0367 0
13.3887 -22.8343 -28.2128 0
12.7088 -22.423 -27.5212 0
12.0575 -22.1961 -26.8553 0
18.5247 -11.9654 -19.5292 0
17.3422 -11.3841 -18.868 0
20.7967 -12.3517 -20.9955 0
19.6882 -12.2268 -20.1654 0
18.3462 -12.4698 -19.4144 0
18.1821 -13.0258 -19.4389 0
17.1927 -12.5242 -18.7273 0
23.0309 -12.7687 -23.4104 0
21.879 -12.569 -22.1567 0
24.1006 -12.2945 -24.8984 0
23.6821 -12.6874 -24.2845 0
22.4162 -13.2465 -23.5721 0
22.1109 -13.7018 -23.7132 0
21.1803 -13.5312 -22.5036 0
19.2647 -13.2334 -20.3368 0
18.1552 -13.6031 -19.4623 0
20.4579 -12.9106 -21.257 0
20.2929 -13.3495 -21.3038 0
20.1661 -13.7539 -21.3814 0
18.6021 -14.174 -19.351 0
17.5016 -13.9486 -18.7386 0
20.4694 -14.2771 -21.5957 0
19.5556 -14.1935 -20.354 0
19.0434 -14.6799 -19.4565 0
19.6395 -15.1457 -19.798 0
18.7056 -15.1678 -18.6757 0
20.2147 -10.9978 -22.67 0
22.7979 -11.5878 -24.3307 0
15.0872 -12.7341 -21.5553 0
17.1872 -11.2953 -21.7376 0
20.2163 -11.352 -22.4888 0
19.6068 -11.7926 -22.4224 0
21.2784 -12.2664 -23.895 0
12.9624 -18.0166 -23.4937 0
13.6959 -15.0738 -22.1753 0
12.2167 -20.2381 -24.9992 0
12.308 -17.7519 -23.2202 0
13.1052 -15.2763 -21.7437 0
17.0579 -11.5425 -21.6258 0
18.8459 -12.21 -22.3759 0
15.2055 -12.738 -21.3799 0
14.9013 -12.9955 -21.1145 0
14.4094 -13.4282 -20.8084 0
17.9047 -12.5123 -22.3945 0
19.6586 -12.9119 -23.1523 0
15.804 -12.6223 -21.3334 0
17.0122 -12.5094 -21.8092 0
18.0173 -13.3379 -21.8427 0
20.5063 -15.2483 -21.301 0
20.2029 -15.7998 -20.5102 0
21.4243 -14.5352 -22.951 0
20.8377 -14.8308 -22.123 0
21.2214 -15.444 -23.0483 0
20.9633 -15.2524 -24.0642 0
20.8333 -15.6757 -23.6324 0
22.5813 -13.4808 -24.4399 0
22.0262 -14.11 -23.7758 0
23.375 -12.7075 -24.8923 0
22.5131 -12.9387 -24.7519 0
21.6565 -13.0615 -24.5271 0
21.356 -14.5302 -24.4655 0
20.5284 -14.9669 -24.5231 0
21.7424 -14.2735 -24.0589 0
21.6244 -13.7602 -24.616 0
20.792 -13.2795 -24.2267 0
19.9503 -14.4039 -23.7893 0
19.7434 -15.1723 -23.7817 0
19.9147 -13.6025 -23.761 0
19.0982 -13.9414 -23.1118 0
18.5208 -14.0802 -21.7421 0
20.6379 -16.2484 -21.4272 0
19.9268 -15.9043 -19.7958 0
20.0973 -15.9295 -23.5118 0
20.5967 -16.0706 -22.9962 0
20.6028 -16.4003 -22.3226 0
20.0255 -16.6943 -22.5879 0
20.6054 -16.7332 -21.6138 0
19.0037 -15.3725 -22.9003 0
19.4375 -15.8161 -23.6375 0
18.5472 -14.8645 -21.7643 0
18.3836 -15.6261 -21.7061 0
18.2957 -16.4277 -21.7381 0
19.3974 -16.6263 -22.9183 0
19.4101 -17.1584 -22.6893 0
19.3654 -16.232 -23.2057 0
18.7833 -16.6892 -22.5766 0
18.1821 -17.3283 -21.7893 0
18.6728 -18.0392 -22.4323 0
19.4118 -17.6102 -22.5069 0
18.0226 -18.3322 -21.9786 0
17.8701 -19.393 -22.1933 0
17.7044 -20.5238 -22.4854 0
21.1305 -6.51962 -18.8161 0
20.1033 -6.8499 -18.7991 0
12.5439 -3.84289 -14.8488 0
12.56 -4.8108 -15.4597 0
13.9882 -5.15155 -16.8783 0
15.6316 -5.81959 -17.5079 0
14.9114 -6.09513 -17.2645 0
17.8066 -6.39227 -18.2662 0
19.1707 -7.17319 -18.753 0
12.9221 -4.59531 -13.9229 0
13.1546 -5.84122 -16.0547 0
12.6718 -5.22075 -14.9649 0
12.7327 -5.81794 -14.7387 0
13.0939 -7.12757 -15.6857 0
13.0331 -6.47649 -14.4707 0
16.2263 -6.91169 -17.7409 0
14.335 -6.42307 -16.9925 0
18.3703 -7.38965 -18.5169 0
17.7419 -7.68026 -18.2711 0
17.4544 -8.01833 -18.0291 0
13.9881 -7.63285 -16.6396 0
14.1565 -8.15417 -16.5578 0
14.1453 -6.94216 -16.7114 0
15.5528 -7.85698 -17.3519 0
17.254 -8.51865 -17.9681 0
15.7007 -8.83701 -17.2443 0
14.4192 -8.68399 -16.5406 0
17.1319 -8.99383 -18.0146 0
16.8721 -9.51841 -18.1677 0
16.592 -10.0728 -18.431 0
21.88 -8.55481 -13.4264 0
22.0665 -8.91823 -12.6817 0
20.7165 -8.87136 -13.996 0
20.2829 -7.68869 -14.6714 0
19.448 -8.76505 -13.5396 0
19.8478 -9.39951 -13.0676 0
18.9961 -7.53857 -14.3767 0
19.2117 -8.1511 -13.9479 0
18.2091 -8.97789 -13.3398 0
17.0306 -9.32156 -13.3869 0
17.3807 -10.1963 -12.8663 0
16.8072 -8.27484 -13.7109 0
15.9956 -9.60353 -13.6004 0
18.8036 -6.66382 -14.5105 0
17.7919 -7.42123 -14.1861 0
16.6682 -7.16295 -14.0159 0
16.6368 -6.32446 -13.8564 0
15.7529 -7.3222 -13.8927 0
17.3618 -5.41874 -14.0838 0
16.499 -5.59889 -13.5854 0
15.5104 -5.7407 -12.951 0
16.5923 -4.09634 -13.4155 0
15.5732 -4.26374 -12.8292 0
14.4917 -4.26402 -12.815 0
15.0687 -9.89265 -14.1198 0
15.4849 -10.8794 -13.9264 0
14.8924 -7.60812 -13.8489 0
14.8981 -8.7521 -14.013 0
14.2097 -10.3277 -14.8033 0
13.8419 -10.458 -15.4209 0
14.23 -11.2133 -15.2377 0
14.5505 -5.73324 -12.9034 0
14.8633 -6.57478 -13.4325 0
14.1925 -4.97663 -12.9893 0
13.6958 -5.81997 -13.3705 0
13.4136 -7.22261 -14.1869 0
14.0759 -9.32593 -15.0869 0
13.8516 -10.3292 -16.0455 0
14.3459 -7.8225 -14.1075 0
13.8668 -8.19439 -14.5971 0
13.8821 -8.36133 -15.5409 0
14.4503 -10.0828 -16.8934 0
14.0386 -11.0706 -16.7647 0
14.6301 -9.23747 -16.8586 0
15.5701 -9.94721 -17.6307 0
16.2599 -10.6925 -18.2248 0
21.3065 -9.72404 -12.7549 0
22.1719 -9.31695 -11.8419 0
22.5184 -9.92684 -11.3387 0
22.0636 -10.7142 -11.7917 0
22.7516 -10.7916 -10.9752 0
19.0613 -10.3467 -12.5952 0
20.2662 -9.96197 -12.6839 0
16.8899 -11.3421 -12.8866 0
17.9173 -10.8495 -12.572 0
18.5354 -11.3292 -12.5491 0
18.3041 -12.2007 -12.9341 0
19.2621 -11.711 -12.8358 0
21.2795 -11.1196 -12.5589 0
21.7416 -11.7767 -12.6404 0
20.7968 -10.548 -12.613 0
20.2292 -11.3727 -12.726 0
20.0369 -12.1093 -13.3512 0
21.4472 -12.4121 -13.3147 0
22.1713 -12.3897 -12.6841 0
20.0022 -12.8615 -14.0253 0
20.7234 -12.6151 -13.7258 0
21.4335 -13.1238 -14.0566 0
21.5248 -13.8641 -14.7957 0
22.0218 -13.7699 -14.2187 0
15.2527 -11.7376 -14.4899 0
16.0664 -11.6253 -13.7208 0
14.3874 -11.8262 -15.5577 0
14.8015 -11.8187 -15.0524 0
15.4249 -12.3954 -15.1714 0
15.6417 -13.0596 -15.7045 0
16.1251 -12.9916 -15.0725 0
15.0761 -11.5 -17.3774 0
14.4716 -11.7074 -16.4358 0
16.04 -11.3374 -18.0599 0
16.0865 -11.9631 -17.9932 0
16.1832 -12.7095 -18.0083 0
15.5066 -13.0594 -16.347 0
16.1729 -13.6891 -16.5084 0
14.8545 -12.3984 -16.1781 0
15.5774 -12.9855 -17.1356 0
16.384 -13.5865 -18.1076 0
16.706 -14.2946 -17.317 0
16.8841 -14.2001 -16.617 0
16.9532 -14.2069 -18.0306 0
17.7078 -14.72 -17.9695 0
18.3567 -15.3486 -18.1328 0
20.9791 -13.9963 -15.2275 0
21.9388 -14.5918 -15.6938 0
19.2585 -13.3939 -14.3164 0
20.1245 -13.6542 -14.8004 0
20.3213 -14.1112 -15.6481 0
19.7194 -14.203 -16.0506 0
20.4208 -14.7544 -16.4335 0
17.4986 -12.5545 -13.5513 0
18.3967 -13.0374 -13.8107 0
16.7454 -12.1203 -13.5465 0
16.6809 -12.7861 -14.2528 0
16.9219 -13.3316 -15.1386 0
18.7737 -13.9851 -15.6915 0
19.1421 -14.5413 -16.5348 0
18.5285 -13.7026 -14.7236 0
17.7874 -13.7807 -15.2977 0
17.2582 -13.9579 -15.9641 0
18.5914 -14.8429 -17.0137 0
19.4916 -15.1883 -17.4417 0
17.738 -14.5601 -16.8077 0
18.4615 -15.1029 -17.5917 0
19.2029 -15.5804 -18.4508 0
21.7244 -15.1425 -16.4392 0
22.9176 -15.0859 -16.2147 0
20.8322 -15.5029 -17.4169 0
21.1271 -15.3041 -16.8866 0
21.5315 -15.9942 -17.568 0
21.4137 -16.8876 -19.0621 0
21.5743 -16.7259 -18.3806 0
19.8447 -15.5142 -18.5172 0
20.3772 -15.537 -17.9784 0
19.7141 -15.6774 -19.0973 0
20.1114 -16.15 -19.9411 0
20.6424 -16.8633 -21.0744 0
20.967 -16.949 -19.827 0
20.6341 -17.5727 -20.7481 0
20.8034 -16.2661 -18.8616 0
20.7236 -16.9047 -20.4926 0
20.1876 -17.229 -21.9766 0
19.4037 -18.6047 -22.0742 0
19.5701 -18.8456 -21.3889 0
19.4351 -18.0677 -22.2788 0
18.435 -19.5076 -22.369 0
17.5101 -21.2062 -22.5426 0
22.5217 -13.1072 -12.6957 0
22.6714 -12.4151 -11.6145 0
22.3792 -14.3442 -14.5136 0
22.4634 -13.7794 -13.4578 0
22.7908 -13.8201 -12.6787 0
22.9876 -14.4672 -12.7913 0
22.9321 -14.0664 -11.719 0
22.6888 -15.629 -16.673 0
23.1991 -14.9972 -15.673 0
21.1059 -17.7462 -19.4238 0
21.461 -16.4255 -17.7254 0
21.6737 -16.5964 -17.1107 0
20.2553 -17.7487 -17.4294 0
21.5438 -16.5216 -16.3492 0
18.4415 -20.4847 -21.9217 0
19.7085 -18.8951 -20.7539 0
17.3678 -21.5716 -22.1353 0
17.4825 -21.6547 -21.1745 0
17.6027 -21.3 -20.3856 0
19.1037 -18.4736 -18.8287 0
18.6993 -18.1454 -17.681 0
19.4701 -18.6005 -19.8565 0
18.344 -19.4506 -19.8692 0
17.4014 -20.5166 -19.3639 0
17.3899 -18.5298 -17.4195 0
18.2055 -17.3017 -16.5609 0
17.058 -20.048 -17.9241 0
16.5819 -19.475 -16.6848 0
16.6276 -18.9754 -15.1432 0
22.5343 -16.3434 -12.2538 0
19.1782 -16.6447 -12.2626 0
22.766 -14.9618 -13.9617 0
22.6833 -15.439 -13.0351 0
22.79 -14.9118 -14.8327 0
22.3087 -15.5328 -15.1302 0
20.8937 -16.1136 -15.378 0
19.8214 -16.6315 -13.3844 0
18.1125 -16.4541 -13.2103 0
21.4627 -16.2999 -13.3401 0
20.3289 -15.9936 -14.4677 0
19.2368 -16.2605 -15.469 0
17.0703 -16.4192 -14.227 0
16.6582 -16.194 -12.8435 0
17.7105 -16.4018 -15.465 0
16.6298 -17.1512 -14.8128 0
16.3873 -18.6892 -13.8527 0
15.6435 -17.4753 -12.1905 0
16.0238 -16.2254 -11.6617 0
16.1587 -18.7057 -12.4869 0
15.4346 -18.8547 -11.4323 0
15.2758 -18.6718 -10.4851 0
16.1184 -16.7012 -10.7299 0
20.3408 -8.68499 -28.1189 0
18.3565 -10.7998 -29.0036 0
15.6074 -12.7758 -29.1913 0
13.5069 -14.3428 -28.9981 0
19.2799 -10.0682 -28.4062 0
16.6696 -12.3563 -29.1642 0
18.1094 -11.1691 -28.8844 0
17.857 -11.7834 -28.9853 0
16.0268 -13.9447 -29.5273 0
13.8362 -13.8724 -29.5555 0
15.2429 -13.2866 -29.2843 0
12.8411 -15.388 -29.0972 0
13.0958 -14.6246 -29.4374 0
13.052 -15.1899 -30.0426 0
12.7262 -16.4676 -30.4541 0
13.466 -16.0025 -30.576 0
15.0534 -14.7071 -30.1654 0
15.3331 -15.421 -30.7265 0
15.2115 -13.9871 -29.7579 0
14.1935 -15.4226 -30.6693 0
13.872 -16.5656 -30.8761 0
15.0906 -16.5677 -31.0497 0
13.6049 -17.556 -31.0108 0
14.3746 -17.0311 -31.0522 0
15.0628 -17.5445 -31.0477 0
14.5742 -18.7048 -31.0101 0
-5.28776 -17.4201 -28.7435 0
-5.38169 -18.7193 -25.8917 0
-6.22002 -18.8207 -26.8545 0
-5.66279 -19.3615 -25.1355 0
4.34107 -19.6529 -24.4646 0
4.60148 -20.1228 -25.0927 0
0.40766 -21.7445 -23.0018 0
0.947884 -22.0865 -23.6711 0
-3.54529 -21.3547 -23.144 0
-3.28134 -22.1105 -22.9112 0
-4.8142 -20.1971 -23.8877 0
-5.82149 -19.9974 -24.5062 0
3.30351 -21.2889 -25.2468 0
4.8641 -20.6614 -25.6549 0
-0.62565 -22.7582 -23.5759 0
1.54505 -22.3301 -24.3603 0
2.11432 -22.5462 -25.0158 0
0.876235 -23.1883 -24.9121 0
2.54471 -22.7207 -25.6619 0
-4.58109 -21.8298 -23.1902 0
-2.81517 -22.7766 -22.6647 0
-6.88215 -19.8324 -25.2904 0
-5.8544 -20.6687 -24.0206 0
-5.76818 -21.434 -23.6864 0
-7.039 -21.1141 -24.34 0
-5.59959 -22.2259 -23.5233 0
-1.1101 -23.2859 -24.3249 0
-0.502499 -23.8097 -25.0349 0
-1.99025 -23.0609 -23.4335 0
-3.62314 -23.176 -23.2957 0
-5.32047 -23.0051 -23.6687 0
-2.20911 -24.0397 -25.3633 0
-0.0765935 -24.3897 -25.7265 0
-6.74616 -22.8929 -24.1535 0
-4.75928 -23.6633 -24.2496 0
-4.1325 -23.9617 -25.1768 0
-5.74474 -24.497 -25.4651 0
-3.60803 -24.0705 -26.1496 0
13.4714 -19.4829 -30.8422 0
13.3958 -19.8225 -31.1455 0
13.0226 -18.1393 -30.4873 0
13.078 -18.844 -30.8057 0
12.4682 -20.1675 -30.6073 0
11.838 -20.6282 -30.0578 0
11.7608 -21.18 -30.4068 0
12.3178 -17.0594 -29.8266 0
12.5758 -17.6016 -30.2812 0
12.2943 -16.0623 -28.7416 0
12.3662 -16.4941 -29.1896 0
11.8554 -17.6679 -29.0951 0
11.2035 -18.3278 -28.6756 0
11.3346 -18.8348 -29.0234 0
11.8738 -19.939 -29.7234 0
11.2531 -21.1249 -29.4517 0
12.4116 -18.74 -29.9594 0
11.6896 -19.3486 -29.3763 0
10.9328 -19.9596 -28.768 0
10.3723 -21.2127 -28.9574 0
10.4317 -21.5543 -29.3001 0
10.1951 -20.4387 -28.1362 0
10.3236 -20.8466 -28.6204 0
9.34312 -21.1297 -28.5676 0
8.22672 -21.2679 -28.3597 0
8.494 -21.3969 -28.5736 0
12.1616 -15.762 -28.2991 0
10.699 -17.3621 -26.7061 0
10.7695 -17.5232 -27.2502 0
8.92947 -18.9253 -25.5319 0
9.01227 -19.213 -26.0512 0
8.09611 -19.1942 -25.1326 0
7.26596 -19.7361 -25.4016 0
8.02233 -21.285 -28.0438 0
6.98348 -21.8093 -28.4331 0
9.9926 -20.02 -27.7149 0
8.98882 -20.7341 -27.8489 0
7.8019 -21.5392 -27.6228 0
7.63642 -21.3714 -27.2766 0
6.69205 -22.1399 -27.5781 0
11.0674 -17.8922 -28.3491 0
10.5496 -18.9314 -28.0418 0
11.6279 -16.7999 -28.3172 0
10.9266 -17.6644 -27.8214 0
9.95628 -18.5124 -27.2414 0
8.4169 -20.4116 -27.2128 0
7.54133 -20.8826 -26.909 0
9.55451 -19.7184 -27.484 0
9.15411 -19.4733 -27.2327 0
9.09447 -19.3272 -26.643 0
7.50905 -20.5789 -26.3696 0
6.60539 -21.3202 -26.6468 0
8.303 -19.9429 -26.1353 0
7.41732 -20.1881 -25.856 0
6.25984 -20.3826 -25.7505 0
5.8045 -22.4766 -28.4823 0
5.93298 -22.2715 -28.8728 0
5.6032 -22.3945 -27.6251 0
5.64883 -22.5418 -28.055 0
4.71836 -23.0365 -28.4859 0
3.59323 -23.7674 -28.379 0
3.76255 -23.5994 -29.1004 0
5.38684 -21.5385 -26.5929 0
5.46352 -21.9855 -27.1634 0
5.09428 -21.1255 -26.1811 0
3.94601 -21.866 -26.4671 0
2.86007 -23.1755 -26.3265 0
3.34 -23.7479 -27.6955 0
2.04526 -24.6318 -28.0393 0
4.33629 -22.6867 -27.5881 0
3.09723 -23.6642 -26.9651 0
1.62787 -24.2845 -26.2805 0
0.0762662 -25.3788 -27.7113 0
0.438166 -25.2197 -28.6955 0
0.0314456 -24.9247 -26.6828 0
-1.59152 -24.8081 -27.0584 0
-3.15075 -24.0381 -27.0965 0
12.4119 -20.9794 -31.1328 0
11.2058 -22.0473 -30.2059 0
11.7677 -21.5604 -30.6634 0
11.5475 -22.2537 -31.1288 0
10.7747 -22.6584 -31.1272 0
9.57293 -21.6216 -29.1647 0
10.4112 -21.8309 -29.6957 0
7.33113 -21.6349 -28.9875 0
8.60175 -21.4706 -28.826 0
8.46126 -21.6479 -29.1287 0
7.33533 -20.9501 -29.7583 0
8.65095 -21.8475 -29.7026 0
10.2944 -22.6045 -30.6173 0
10.0798 -22.6749 -31.2928 0
10.4579 -22.2254 -30.1386 0
9.75857 -22.4782 -30.0601 0
8.89441 -21.8866 -30.4623 0
9.44521 -22.298 -31.7034 0
7.88761 -20.71 -31.3426 0
8.79259 -21.6031 -31.4995 0
8.88997 -21.4894 -32.322 0
7.62451 -21.5014 -32.8448 0
4.96829 -22.6861 -29.5512 0
6.00783 -22.0724 -29.2649 0
2.47003 -24.0936 -29.9242 0
3.85133 -23.352 -29.843 0
4.09796 -22.7863 -30.6014 0
3.11099 -22.8101 -31.6897 0
4.34857 -21.8299 -31.2114 0
-1.03226 -24.2405 -29.1957 0
0.800909 -24.8274 -29.7843 0
-4.91024 -24.2741 -27.5425 0
-2.95511 -23.4805 -28.1107 0
-2.69751 -22.693 -29.1836 0
-4.25343 -22.7671 -29.6199 0
-2.30646 -21.721 -30.1546 0
1.55778 -23.2729 -31.8255 0
2.05556 -22.5595 -32.5314 0
1.10267 -24.1454 -30.9425 0
-0.163312 -22.6383 -31.3174 0
-1.98209 -21.0189 -31.1031 0
0.712543 -21.9092 -32.8672 0
2.59226 -21.7644 -32.8684 0
-3.60282 -21.5944 -31.7484 0
-1.75399 -20.6746 -32.075 0
-1.58305 -20.536 -32.6765 0
-3.78321 -20.845 -33.4327 0
-1.75401 -20.7027 -33.0688 0
6.42242 -21.1135 -33.099 0
5.87693 -21.6155 -33.6406 0
6.84313 -20.425 -31.6347 0
6.78938 -20.2193 -32.5965 0
5.4051 -20.963 -33.3212 0
4.54434 -21.1058 -33.4637 0
3.95893 -21.5987 -33.7662 0
6.2348 -20.7119 -30.1445 0
6.49134 -20.4335 -30.7409 0
6.05194 -21.3225 -29.6767 0
5.32151 -21.0619 -30.6492 0
4.63779 -20.785 -31.5999 0
5.02725 -20.5188 -33.0065 0
3.44852 -21.4725 -33.5782 0
5.94287 -20.3321 -31.9267 0
4.9368 -20.811 -32.2774 0
3.89568 -21.3457 -32.5943 0
2.1598 -21.9624 -33.6513 0
1.72184 -22.3351 -33.7734 0
2.83382 -21.4365 -33.4606 0
0.447752 -21.5327 -33.4033 0
-1.72402 -21.1734 -33.0898 0
4.49066 -21.8544 -34.1833 0
2.49579 -22.2948 -33.9393 0
3.50284 -22.0562 -34.0518 0
3.23711 -22.3484 -34.1257 0
1.96992 -23.0304 -33.9571 0
0.0956153 -22.2557 -33.3133 0
1.42327 -22.5075 -33.7277 0
-2.65544 -22.0179 -32.9206 0
-1.52294 -21.9271 -32.9559 0
-1.12658 -22.7732 -32.8299 0
-1.63007 -24.0217 -32.4209 0
-0.670106 -23.6917 -32.7265 0
1.17389 -23.2214 -33.5172 0
1.16988 -24.0145 -33.2364 0
1.31847 -22.8314 -33.6507 0
0.259041 -23.4295 -33.1074 0
-0.276659 -24.5815 -32.3889 0
0.433948 -25.0455 -32.5206 0
-0.518789 -25.7768 -31.6307 0
-0.0186923 -25.3711 -32.1187 0
0.313429 -26.0799 -31.8818 0
0.200032 -27.0069 -31.2786 0
-6.18074 -17.4424 -29.8862 0
-8.50533 -17.8283 -29.7476 0
-7.25933 -17.669 -29.8052 0
-6.61996 -18.2091 -28.9353 0
-7.10721 -18.8644 -27.9192 0
-16.4344 -20.9546 -31.1841 0
-15.1138 -20.0292 -31.617 0
-14.3447 -20.1581 -31.6165 0
-15.8662 -20.5405 -31.6167 0
-15.927 -21.0369 -31.5371 0
-14.4454 -20.809 -31.7987 0
-13.4398 -20.2584 -31.5451 0
-15.9792 -21.5673 -31.4472 0
-15.3065 -21.1421 -31.7335 0
-14.5057 -21.3288 -31.7514 0
-14.5083 -21.9109 -31.6188 0
-13.5764 -21.6002 -31.6631 0
-8.09389 -19.1141 -28.6821 0
-7.62469 -19.2869 -26.9974 0
-9.58669 -18.0884 -29.8931 0
-8.70119 -18.7387 -29.6782 0
-9.01563 -19.3712 -29.2457 0
-10.0065 -19.645 -29.657 0
-9.46247 -19.9036 -28.6715 0
-12.2558 -18.9063 -30.6654 0
-10.5109 -19.4808 -30.3818 0
-11.1208 -19.8538 -30.0581 0
-10.4333 -18.6175 -30.1888 0
-11.2963 -19.1895 -30.5576 0
-12.3525 -19.6276 -31.0702 0
-11.9165 -20.2582 -30.7928 0
-11.5484 -20.2563 -29.944 0
-12.5196 -20.3194 -31.3289 0
-12.856 -20.8098 -31.4287 0
-12.9031 -21.4879 -31.3712 0
-8.00702 -19.7035 -26.2512 0
-9.99347 -20.3838 -28.0194 0
-9.08628 -19.9444 -27.1576 0
-8.14579 -20.385 -25.7768 0
-8.26816 -21.0948 -25.3998 0
-11.8732 -20.7449 -29.6415 0
-11.0524 -20.5011 -28.707 0
-13.1988 -22.0822 -31.0352 0
-12.5673 -21.1971 -30.6849 0
-12.2563 -21.1941 -29.343 0
-12.5206 -21.8654 -29.1541 0
-11.7034 -21.3621 -28.1235 0
-9.49855 -21.1266 -26.3766 0
-8.2379 -21.8651 -25.1792 0
-10.4339 -20.7702 -27.5219 0
-10.7471 -21.0814 -27.2246 0
-11.0453 -21.4923 -26.9722 0
-8.1419 -22.6336 -25.0473 0
-10.8047 -22.3 -27.2099 0
-9.53721 -22.3957 -26.1437 0
-7.72694 -23.67 -25.5082 0
-7.27836 -24.5507 -26.1647 0
-8.79531 -24.0172 -27.151 0
-6.78363 -24.6233 -27.28 0
-11.8186 -22.9752 -28.1264 0
-10.5787 -23.1102 -27.4334 0
-10.2359 -23.7595 -28.072 0
-11.263 -24.2281 -28.8685 0
-9.56217 -24.3787 -29.0252 0
-13.2985 -22.2161 -29.8256 0
-12.6808 -22.4903 -29.1136 0
-13.6412 -22.6395 -31.0729 0
-13.4828 -22.4736 -30.4901 0
-13.7357 -22.7606 -29.909 0
-13.8358 -23.3152 -29.7533 0
-13.5437 -23.3451 -29.7275 0
-12.3966 -23.5868 -29.4743 0
-11.6039 -24.3361 -29.8934 0
-12.8414 -22.9439 -29.0992 0
-13.1659 -23.3917 -29.4722 0
-13.0835 -24.0201 -29.5165 0
-11.6769 -24.8295 -29.9289 0
-11.0415 -24.7893 -30.3974 0
-12.871 -24.6479 -29.2414 0
-12.4309 -24.6872 -29.6417 0
-11.6881 -25.3511 -29.8562 0
-11.2882 -25.9276 -29.5813 0
-10.8114 -25.835 -30.2306 0
-15.1174 -22.2606 -31.2906 0
-14.2141 -22.5085 -31.2385 0
-16.134 -22.0827 -30.6691 0
-15.6184 -22.1719 -31.0487 0
-15.1854 -22.7636 -30.4891 0
-14.9805 -23.3049 -29.4344 0
-14.5591 -23.394 -29.8039 0
-16.5264 -21.904 -30.2525 0
-11.6378 -26.0232 -28.9023 0
-10.4512 -26.2953 -29.2579 0
-13.1223 -24.6098 -28.9352 0
-12.4372 -25.3856 -28.7953 0
-11.7372 -25.8821 -28.1941 0
-11.4762 -25.3719 -27.4258 0
-10.7634 -26.0468 -27.7581 0
-14.0582 -23.3688 -30.0114 0
-13.5915 -23.957 -29.2824 0
-14.1014 -22.9721 -30.6984 0
-14.2409 -23.4436 -30.1474 0
-13.8978 -24.0272 -28.9839 0
-12.3088 -24.8042 -27.6871 0
-11.3325 -25.0572 -26.781 0
-13.2523 -24.5337 -28.5587 0
-13.3553 -24.514 -28.2257 0
-13.4298 -24.489 -27.8954 0
-9.54964 -26.8085 -28.9282 0
-9.11274 -26.8502 -29.6525 0
-9.83378 -26.5005 -27.5282 0
-9.74935 -26.6516 -28.1836 0
-8.55244 -27.4941 -28.4503 0
-7.44146 -28.2773 -28.0016 0
-7.04078 -28.2215 -28.1955 0
-7.94621 -28.0867 -28.22 0
-6.19058 -24.4043 -28.5354 0
-8.93168 -24.5696 -30.3244 0
-7.48745 -24.478 -29.5717 0
-5.78763 -24.4465 -29.6753 0
-5.5872 -23.6099 -30.7081 0
-10.5097 -25.1463 -31.0184 0
-10.1073 -24.8629 -30.8435 0
-9.60082 -26.1499 -30.885 0
-10.1712 -25.6328 -30.8698 0
-9.80824 -25.1555 -32.0725 0
-9.2404 -24.8379 -33.1508 0
-9.53175 -24.191 -33.2114 0
-7.22941 -23.8722 -31.9878 0
-5.57744 -22.7778 -31.7981 0
-8.87212 -24.3159 -31.6961 0
-8.74751 -23.9256 -32.872 0
-8.48134 -23.5377 -33.9108 0
-5.46114 -22.3732 -32.6971 0
-7.6999 -23.9347 -34.4418 0
-7.00537 -22.875 -33.874 0
-5.42133 -21.9601 -33.509 0
-4.95151 -21.6584 -34.1153 0
-7.83701 -27.0115 -30.0745 0
-8.78378 -26.6086 -30.5712 0
-6.13666 -28.3283 -28.7992 0
-6.72724 -27.4053 -29.2629 0
-6.49521 -26.7248 -30.3819 0
-5.47936 -26.8788 -31.1007 0
-6.3891 -26.0184 -31.5922 0
-5.82954 -29.1337 -28.8245 0
-4.80533 -27.8079 -30.802 0
-4.69003 -26.8449 -32.1378 0
-5.2708 -28.5654 -29.6694 0
-4.44962 -28.7144 -30.943 0
-4.51775 -27.0104 -33.7077 0
-5.0165 -26.195 -33.678 0
-4.10737 -27.6188 -33.873 0
-4.33802 -27.0488 -35.1947 0
-3.97657 -26.3748 -36.1734 0
-5.8227 -22.7479 -34.519 0
-4.46083 -21.9414 -34.0328 0
-8.06088 -24.9582 -34.731 0
-7.00149 -24.0003 -34.5867 0
-6.13665 -23.8395 -34.9443 0
-6.21106 -24.8169 -35.3372 0
-4.79974 -23.4904 -35.4243 0
-8.66797 -25.3878 -33.0473 0
-8.46999 -24.9258 -34.0159 0
-8.64534 -26.0825 -31.6447 0
-7.64404 -25.7646 -32.4693 0
-6.63214 -25.4911 -33.0084 0
-6.63474 -25.1473 -34.8761 0
-5.55851 -25.3308 -35.3839 0
-7.6103 -25.1378 -34.5229 0
-6.82519 -25.1816 -34.2533 0
-5.82238 -25.6586 -33.9159 0
-4.92709 -25.666 -35.6819 0
-4.13144 -24.9654 -35.8653 0
-5.35289 -26.2197 -35.0222 0
-4.42055 -25.9667 -36.0493 0
-3.56834 -25.8399 -36.8096 0
-3.64904 -22.6348 -33.4969 0
-4.25188 -24.0557 -35.0338 0
-4.32477 -23.2284 -34.3661 0
-2.7149 -23.9218 -32.7421 0
-2.03919 -25.1617 -32.2704 0
-3.34246 -24.8908 -36.2247 0
-3.79638 -24.5996 -35.5185 0
-3.06848 -25.4801 -36.5908 0
-2.72736 -26.3508 -35.1355 0
-2.17233 -27.5746 -33.5369 0
-2.24924 -26.1324 -32.5039 0
-1.24702 -26.0896 -31.6994 0
-3.12426 -25.3195 -34.1978 0
-2.00655 -26.7448 -33.2811 0
-1.66895 -28.1911 -32.0495 0
-0.614456 -26.9159 -31.1065 0
-0.671644 -27.9765 -30.8838 0
-0.152114 -27.4628 -31.0562 0
-3.32333 -28.0733 -36.4077 0
-3.80128 -28.5247 -34.7804 0
-3.77801 -28.0381 -34.162 0
-2.09404 -27.8751 -37.4849 0
-2.81826 -27.5227 -36.9755 0
0.652658 -32.9434 -34.7325 0
-0.150829 -32.9976 -34.4947 0
-0.200029 -33.0057 -34.0203 0
-0.124735 -32.9307 -33.6024 0
-0.774906 -32.4755 -33.5508 0
-1.75201 -28.8662 -36.8552 0
-1.81812 -29.4966 -37.266 0
-1.68852 -30.2804 -36.7259 0
-1.57369 -30.6479 -35.5425 0
-1.44366 -31.47 -34.8365 0
-1.09281 -31.7774 -33.9544 0
2.24403 -32.3944 -36.2501 0
1.61967 -32.4372 -35.6832 0
3.57597 -31.8107 -37.2883 0
2.89241 -32.1305 -37.0034 0
3.34954 -30.9978 -37.4297 0
8.07056 -30.1747 -35.173 0
7.53226 -29.6316 -35.3598 0
8.6313 -30.8705 -35.0818 0
9.06621 -30.4641 -34.1665 0
9.59226 -29.9159 -33.2447 0
9.98567 -30.0992 -33.0011 0
10.4666 -29.8586 -31.9919 0
10.8721 -30.1277 -31.7154 0
11.6553 -30.078 -30.5231 0
11.5157 -29.7653 -30.7805 0
11.2679 -30.666 -30.0828 0
11.1294 -30.872 -28.9129 0
11.5677 -30.3527 -28.1206 0
11.6605 -28.9874 -25.9727 0
5.08917 -29.2917 -36.9473 0
4.75464 -30.1881 -37.2208 0
5.82481 -29.3328 -36.8075 0
6.55691 -29.2261 -36.3503 0
7.23098 -29.3192 -36.0699 0
14.2304 -27.9445 -15.1584 0
13.8155 -28.6907 -15.3765 0
10.7946 -28.2883 -19.6992 0
9.8689 -28.9741 -18.352 0
9.27167 -29.3587 -17.3649 0
9.89644 -30.0553 -17.1516 0
10.4264 -30.0632 -18.8124 0
10.1577 -30.895 -18.6864 0
9.81601 -30.5424 -17.9533 0
13.3578 -29.4756 -15.6096 0
12.2302 -28.7292 -15.3068 0
12.5514 -29.5544 -15.515 0
11.4083 -28.8738 -15.4206 0
10.6784 -29.136 -15.6991 0
10.2046 -29.598 -16.403 0
12.2307 -29.6517 -25.0623 0
12.0672 -28.9381 -23.9035 0
12.1936 -29.5271 -24.0477 0
12.1278 -29.451 -23.0356 0
11.9529 -30.3477 -27.1802 0
12.3377 -30.3258 -26.2316 0
10.9789 -30.0706 -19.6035 0
11.236 -29.2096 -19.9875 0
11.4293 -28.501 -20.636 0
11.632 -27.9683 -21.435 0
11.8882 -28.561 -21.6313 0
11.9351 -29.0116 -21.8727 0
13.8772 -28.518 -14.5297 0
15.1542 -26.9194 -14.2944 0
17.4921 -23.6567 -11.7853 0
18.0106 -22.6571 -11.8186 0
18.8896 -21.8878 -11.1546 0
15.7701 -26.3183 -13.2812 0
16.4028 -25.4548 -12.1849 0
15.2736 -27.3079 -13.4931 0
14.4869 -28.1385 -13.6221 0
16.9293 -24.5711 -11.8816 0
17.7876 -21.4717 -11.1375 0
17.2403 -21.0309 -10.314 0
16.2023 -20.3471 -10.101 0
16.2514 -19.5996 -9.44388 0
16.1305 -18.6313 -9.45269 0
22.0892 -6.8728 -26.6921 0
22.7637 -6.29364 -25.6159 0
23.8222 -6.16813 -24.4606 0
25.1716 -6.12295 -23.0983 0
26.645 -6.27573 -21.5512 0
26.5949 -7.10992 -21.1837 0
26.4862 -7.23438 -20.774 0
24.3364 -7.37821 -19.9979 0
23.1097 -6.82983 -19.5685 0
19.9209 -5.86051 -18.4578 0
17.5824 -5.3869 -17.8604 0
22.0629 -6.22472 -19.0829 0
12.6695 -3.35562 -13.9167 0
12.9609 -3.75941 -13.5894 0
12.5934 -3.05805 -14.5073 0
12.5969 -3.61456 -15.6681 0
12.5386 -4.50334 -16.1195 0
13.2789 -4.22432 -16.5104 0
14.8503 -4.89422 -17.1487 0
16.5447 -5.59906 -17.7194 0
13.6929 -4.34255 -13.3171 0
23.045 -8.38639 -12.9999 0
23.1434 -8.72791 -12.1695 0
23.0206 -7.99475 -13.6443 0
21.7508 -8.09915 -13.9696 0
20.4813 -8.30436 -14.3688 0
21.5743 -7.57627 -14.4059 0
21.3226 -6.87334 -14.6842 0
20.0577 -6.87718 -14.7909 0
17.0304 -4.70853 -13.7722 0
18.503 -5.57178 -14.4837 0
19.8072 -5.9542 -14.8023 0
18.1978 -4.75869 -14.1194 0
16.0403 -4.88481 -13.0537 0
15.0531 -5.00595 -12.5142 0
17.8273 -4.05988 -13.7507 0
17.3733 -3.46833 -13.4249 0
16.1023 -3.52514 -13.2067 0
14.9606 -3.56588 -13.0468 0
13.8007 -3.62537 -13.1057 0
23.2612 -9.0874 -11.3562 0
23.5059 -9.98304 -10.9058 0
23.6674 -10.8251 -10.4646 0
23.0263 -11.7123 -10.8014 0
23.2196 -12.515 -10.8188 0
23.2609 -13.3826 -10.946 0
23.1353 -14.3888 -11.0863 0
22.7594 -15.5886 -11.1491 0
21.9664 -16.6952 -11.4329 0
20.2481 -16.9755 -11.3632 0
18.5553 -15.9487 -11.1463 0
16.9761 -15.7307 -10.9422 0
17.1547 -15.8208 -10.2722 0
16.4433 -16.5364 -9.72204 0
15.6514 -17.683 -10.2605 0
15.6373 -18.3405 -9.74793 0
21.307 -7.59135 -27.7201 0
12.8846 -14.8032 -28.2144 0
13.731 -14.1225 -28.5716 0
20.4911 -8.61095 -28.5128 0
19.5569 -9.56653 -28.8145 0
18.4611 -10.5219 -29.0609 0
16.9898 -11.8504 -29.1733 0
17.1487 -11.4547 -29.1153 0
15.8463 -12.4401 -29.0396 0
14.3594 -13.4802 -29.2341 0
14.7655 -13.2958 -28.8234 0
5.8255 -19.0782 -24.6959 0
7.13105 -19.2135 -24.9108 0
-4.96237 -16.8495 -28.4694 0
-4.5075 -17.4383 -27.049 0
-4.94754 -18.1772 -26.7395 0
-4.48459 -18.4833 -25.1951 0
-4.69815 -19.3342 -24.5021 0
5.64676 -18.4492 -23.9932 0
2.60549 -20.8779 -23.7307 0
4.15734 -19.2774 -23.6837 0
2.3194 -20.5035 -23.1061 0
-1.83722 -21.9179 -22.8031 0
-0.01402 -21.0749 -22.5441 0
-2.10658 -21.1076 -22.7989 0
-3.5648 -20.3699 -23.521 0
12.0714 -15.4951 -27.8576 0
11.4819 -16.5685 -27.8174 0
11.4154 -16.4038 -27.2873 0
11.5833 -16.2151 -26.8283 0
9.7551 -18.2535 -26.1103 0
10.6295 -17.1499 -26.1753 0
9.67936 -18.0043 -25.5756 0
8.80194 -18.4922 -25.0532 0
7.9732 -18.7047 -24.6419 0
-5.95038 -16.9532 -29.3303 0
-6.93785 -17.0481 -29.7822 0
-8.17788 -17.1576 -29.7872 0
-9.41141 -17.3029 -29.6702 0
-14.212 -19.3445 -31.3079 0
-13.1248 -18.7973 -30.7277 0
-16.9605 -20.7774 -30.8029 0
-16.3824 -20.3576 -31.2655 0
-17.0118 -21.4335 -30.7174 0
-14.7664 -19.2876 -31.0731 0
-15.6487 -19.9206 -31.3454 0
-12.0762 -18.2514 -30.102 0
-11.3201 -18.2661 -30.1814 0
-10.4124 -17.5916 -29.8153 0
-16.7841 -21.669 -29.8127 0
-16.0852 -22.0166 -29.2244 0
-14.3087 -23.739 -28.3172 0
-15.141 -23.1135 -29.1384 0
-15.9486 -22.4167 -29.7129 0
-13.4459 -24.2845 -27.5808 0
-10.373 -25.5937 -26.3456 0
-11.4031 -24.9617 -26.4161 0
-12.4284 -24.6565 -26.9466 0
-9.65289 -26.3736 -26.806 0
-7.11995 -29.2071 -28.106 0
-7.69932 -29.0081 -28.5101 0
-8.9884 -27.3216 -27.5836 0
-8.38224 -28.1034 -28.2335 0
-6.36263 -29.7161 -28.4212 0
-5.77924 -29.9661 -29.5213 0
-4.91972 -29.4616 -29.8775 0
-3.86047 -28.3691 -32.3951 0
-4.2171 -29.3992 -31.295 0
488 1947 1948 0
488 1948 1949 0
127 488 1949 0
126 1950 1951 0
489 488 127 0
1951 1947 488 0
1951 488 489 0
126 1951 489 0
491 489 127 0
490 126 489 0
490 489 491 0
8 490 491 0
492 1952 1953 0
492 1953 1954 0
128 492 1954 0
128 1954 1955 0
494 1955 1956 0
493 128 1955 0
493 1955 494 0
7 493 494 0
496 490 8 0
495 126 490 0
495 490 496 0
130 495 496 0
497 1950 126 0
1957 1950 497 0
129 1957 497 0
498 495 130 0
497 126 495 0
497 495 498 0
129 497 498 0
500 498 130 0
499 129 498 0
499 498 500 0
32 499 500 0
502 499 32 0
501 129 499 0
501 499 502 0
131 501 502 0
503 1957 129 0
1958 1957 503 0
1959 1958 503 0
1960 501 131 0
503 129 501 0
503 501 1960 0
1959 503 1960 0
1961 1960 131 0
505 502 32 0
504 131 502 0
504 502 505 0
132 504 505 0
1962 1961 131 0
506 504 132 0
1962 131 504 0
1962 504 506 0
1956 1962 506 0
507 506 132 0
494 1956 506 0
494 506 507 0
7 494 507 0
509 496 8 0
508 130 496 0
508 496 509 0
134 508 509 0
511 500 130 0
510 32 500 0
510 500 511 0
133 510 511 0
512 508 134 0
511 130 508 0
511 508 512 0
133 511 512 0
514 512 134 0
513 133 512 0
513 512 514 0
34 513 514 0
516 505 32 0
515 132 505 0
515 505 516 0
136 515 516 0
518 507 132 0
517 7 507 0
517 507 518 0
135 517 518 0
519 515 136 0
518 132 515 0
518 515 519 0
135 518 519 0
521 519 136 0
520 135 519 0
520 519 521 0
33 520 521 0
523 513 34 0
522 133 513 0
522 513 523 0
137 522 523 0
524 510 133 0
516 32 510 0
516 510 524 0
136 516 524 0
525 522 137 0
524 133 522 0
524 522 525 0
136 524 525 0
526 525 137 0
521 136 525 0
521 525 526 0
33 521 526 0
528 523 34 0
527 137 523 0
527 523 528 0
139 527 528 0
530 526 137 0
529 33 526 0
529 526 530 0
138 529 530 0
531 527 139 0
530 137 527 0
530 527 531 0
138 530 531 0
533 531 139 0
532 138 531 0
532 531 533 0
0 532 533 0
535 532 0 0
534 138 532 0
534 532 535 0
141 534 535 0
537 529 138 0
536 33 529 0
536 529 537 0
140 536 537 0
538 534 141 0
537 138 534 0
537 534 538 0
140 537 538 0
540 538 141 0
539 140 538 0
539 538 540 0
36 539 540 0
542 520 33 0
541 135 520 0
541 520 542 0
143 541 542 0
544 517 135 0
543 7 517 0
543 517 544 0
142 543 544 0
545 541 143 0
544 135 541 0
544 541 545 0
142 544 545 0
547 545 143 0
546 142 545 0
546 545 547 0
35 546 547 0
549 539 36 0
548 140 539 0
548 539 549 0
144 548 549 0
550 536 140 0
542 33 536 0
542 536 550 0
143 542 550 0
551 548 144 0
550 140 548 0
550 548 551 0
143 550 551 0
552 551 144 0
547 143 551 0
547 551 552 0
35 547 552 0
554 549 36 0
553 144 549 0
553 549 554 0
146 553 554 0
556 552 144 0
555 35 552 0
555 552 556 0
145 555 556 0
557 553 146 0
556 144 553 0
556 553 557 0
145 556 557 0
559 557 146 0
558 145 557 0
558 557 559 0
10 558 559 0
561 493 7 0
560 128 493 0
560 493 561 0
148 560 561 0
563 492 128 0
562 1952 492 0
562 492 563 0
147 562 563 0
564 560 148 0
563 128 560 0
563 560 564 0
147 563 564 0
566 564 148 0
565 147 564 0
565 564 566 0
38 565 566 0
150 1963 1964 0
149 1965 1966 0
1967 1963 150 0
149 1966 1967 0
568 1967 150 0
567 149 1967 0
567 1967 568 0
37 567 568 0
570 565 38 0
569 147 565 0
569 565 570 0
151 569 570 0
571 562 147 0
1964 1952 562 0
1964 562 571 0
150 1964 571 0
572 569 151 0
571 147 569 0
571 569 572 0
150 571 572 0
573 572 151 0
568 150 572 0
568 572 573 0
37 568 573 0
575 570 38 0
574 151 570 0
574 570 575 0
153 574 575 0
577 573 151 0
576 37 573 0
576 573 577 0
152 576 577 0
578 574 153 0
577 151 574 0
577 574 578 0
152 577 578 0
580 578 153 0
579 152 578 0
579 578 580 0
9 579 580 0
582 558 10 0
581 145 558 0
581 558 582 0
155 581 582 0
584 555 145 0
583 35 555 0
583 555 584 0
154 583 584 0
585 581 155 0
584 145 581 0
584 581 585 0
154 584 585 0
587 585 155 0
586 154 585 0
586 585 587 0
39 586 587 0
589 546 35 0
588 142 546 0
588 546 589 0
156 588 589 0
590 543 142 0
561 7 543 0
561 543 590 0
148 561 590 0
591 588 156 0
590 142 588 0
590 588 591 0
148 590 591 0
592 591 156 0
566 148 591 0
566 591 592 0
38 566 592 0
594 586 39 0
593 154 586 0
593 586 594 0
157 593 594 0
595 583 154 0
589 35 583 0
589 583 595 0
156 589 595 0
596 593 157 0
595 154 593 0
595 593 596 0
156 595 596 0
597 596 157 0
592 156 596 0
592 596 597 0
38 592 597 0
599 594 39 0
598 157 594 0
598 594 599 0
158 598 599 0
600 597 157 0
575 38 597 0
575 597 600 0
153 575 600 0
601 598 158 0
600 157 598 0
600 598 601 0
153 600 601 0
602 601 158 0
580 153 601 0
580 601 602 0
9 580 602 0
604 582 10 0
603 155 582 0
603 582 604 0
160 603 604 0
606 587 155 0
605 39 587 0
605 587 606 0
159 605 606 0
607 603 160 0
606 155 603 0
606 603 607 0
159 606 607 0
609 607 160 0
608 159 607 0
608 607 609 0
41 608 609 0
611 599 39 0
610 158 599 0
610 599 611 0
162 610 611 0
613 602 158 0
612 9 602 0
612 602 613 0
161 612 613 0
614 610 162 0
613 158 610 0
613 610 614 0
161 613 614 0
616 614 162 0
615 161 614 0
615 614 616 0
40 615 616 0
618 608 41 0
617 159 608 0
617 608 618 0
163 617 618 0
619 605 159 0
611 39 605 0
611 605 619 0
162 611 619 0
620 617 163 0
619 159 617 0
619 617 620 0
162 619 620 0
621 620 163 0
616 162 620 0
616 620 621 0
40 616 621 0
623 618 41 0
622 163 618 0
622 618 623 0
165 622 623 0
625 621 163 0
624 40 621 0
624 621 625 0
164 624 625 0
626 622 165 0
625 163 622 0
625 622 626 0
164 625 626 0
628 626 165 0
627 164 626 0
627 626 628 0
3 627 628 0
166 1968 1969 0
629 1968 166 0
1970 1968 629 0
1971 1970 629 0
631 629 166 0
630 1971 629 0
630 629 631 0
11 630 631 0
632 630 11 0
1972 1971 630 0
1972 630 632 0
167 1972 632 0
1973 1972 167 0
1974 1973 167 0
634 632 11 0
633 167 632 0
633 632 634 0
169 633 634 0
636 1974 167 0
635 1975 1974 0
635 1974 636 0
168 635 636 0
637 633 169 0
636 167 633 0
636 633 637 0
168 636 637 0
639 637 169 0
638 168 637 0
638 637 639 0
43 638 639 0
170 1976 1977 0
640 1976 170 0
1978 1976 640 0
1979 1978 640 0
641 640 170 0
1980 1979 640 0
1980 640 641 0
42 1980 641 0
643 638 43 0
642 168 638 0
642 638 643 0
171 642 643 0
644 635 168 0
1977 1975 635 0
1977 635 644 0
170 1977 644 0
645 642 171 0
644 168 642 0
644 642 645 0
170 644 645 0
646 645 171 0
641 170 645 0
641 645 646 0
42 641 646 0
648 643 43 0
647 171 643 0
647 643 648 0
173 647 648 0
649 646 171 0
1981 42 646 0
1981 646 649 0
172 1981 649 0
650 647 173 0
649 171 647 0
649 647 650 0
172 649 650 0
652 650 173 0
651 172 650 0
651 650 652 0
2 651 652 0
654 627 3 0
653 164 627 0
653 627 654 0
175 653 654 0
656 624 164 0
655 40 624 0
655 624 656 0
174 655 656 0
657 653 175 0
656 164 653 0
656 653 657 0
174 656 657 0
659 657 175 0
658 174 657 0
658 657 659 0
45 658 659 0
661 615 40 0
660 161 615 0
660 615 661 0
177 660 661 0
663 612 161 0
662 9 612 0
662 612 663 0
176 662 663 0
664 660 177 0
663 161 660 0
663 660 664 0
176 663 664 0
666 664 177 0
665 176 664 0
665 664 666 0
44 665 666 0
668 658 45 0
667 174 658 0
667 658 668 0
178 667 668 0
669 655 174 0
661 40 655 0
661 655 669 0
177 661 669 0
670 667 178 0
669 174 667 0
669 667 670 0
177 669 670 0
671 670 178 0
666 177 670 0
666 670 671 0
44 666 671 0
673 668 45 0
672 178 668 0
672 668 673 0
180 672 673 0
675 671 178 0
674 44 671 0
674 671 675 0
179 674 675 0
676 672 180 0
675 178 672 0
675 672 676 0
179 675 676 0
678 676 180 0
677 179 676 0
677 676 678 0
12 677 678 0
680 579 9 0
679 152 579 0
679 579 680 0
182 679 680 0
682 576 152 0
681 37 576 0
681 576 682 0
181 681 682 0
683 679 182 0
682 152 679 0
682 679 683 0
181 682 683 0
685 683 182 0
684 181 683 0
684 683 685 0
46 684 685 0
686 567 37 0
1982 149 567 0
1982 567 686 0
183 1982 686 0
1983 1965 149 0
1984 1982 183 0
1983 149 1982 0
687 1984 183 0
1985 1984 687 0
1986 1985 687 0
689 684 46 0
688 181 684 0
688 684 689 0
184 688 689 0
690 681 181 0
686 37 681 0
686 681 690 0
183 686 690 0
691 688 184 0
690 181 688 0
690 688 691 0
183 690 691 0
692 691 184 0
687 183 691 0
687 691 692 0
1986 687 692 0
694 689 46 0
693 184 689 0
693 689 694 0
185 693 694 0
695 692 184 0
1969 1986 692 0
1969 692 695 0
166 1969 695 0
696 693 185 0
695 184 693 0
695 693 696 0
166 695 696 0
697 696 185 0
631 166 696 0
631 696 697 0
11 631 697 0
699 677 12 0
698 179 677 0
698 677 699 0
187 698 699 0
701 674 179 0
700 44 674 0
700 674 701 0
186 700 701 0
702 698 187 0
701 179 698 0
701 698 702 0
186 701 702 0
704 702 187 0
703 186 702 0
703 702 704 0
47 703 704 0
706 665 44 0
705 176 665 0
705 665 706 0
188 705 706 0
707 662 176 0
680 9 662 0
680 662 707 0
182 680 707 0
708 705 188 0
707 176 705 0
707 705 708 0
182 707 708 0
709 708 188 0
685 182 708 0
685 708 709 0
46 685 709 0
711 703 47 0
710 186 703 0
710 703 711 0
189 710 711 0
712 700 186 0
706 44 700 0
706 700 712 0
188 706 712 0
713 710 189 0
712 186 710 0
712 710 713 0
188 712 713 0
714 713 189 0
709 188 713 0
709 713 714 0
46 709 714 0
716 711 47 0
715 189 711 0
715 711 716 0
190 715 716 0
717 714 189 0
694 46 714 0
694 714 717 0
185 694 717 0
718 715 190 0
717 189 715 0
717 715 718 0
185 717 718 0
719 718 190 0
697 185 718 0
697 718 719 0
11 697 719 0
721 699 12 0
720 187 699 0
720 699 721 0
192 720 721 0
723 704 187 0
722 47 704 0
722 704 723 0
191 722 723 0
724 720 192 0
723 187 720 0
