#!ascii - generated by CreateLabelFiles project 
4315 8329
39 2342 2464 0
2466 2441 40 0
2465 614 2441 0
2465 2441 2466 0
622 2465 2466 0
2468 2438 614 0
2467 154 2438 0
2467 2438 2468 0
621 2467 2468 0
2469 2465 622 0
2468 614 2465 0
2468 2465 2469 0
621 2468 2469 0
2471 2469 622 0
2470 621 2469 0
2470 2469 2471 0
157 2470 2471 0
2473 2429 154 0
2472 611 2429 0
2472 2429 2473 0
623 2472 2473 0
2474 2426 611 0
2444 36 2426 0
2444 2426 2474 0
617 2444 2474 0
2475 2472 623 0
2474 611 2472 0
2474 2472 2475 0
617 2474 2475 0
2476 2475 623 0
2449 617 2475 0
2449 2475 2476 0
156 2449 2476 0
2478 2470 157 0
2477 621 2470 0
2477 2470 2478 0
624 2477 2478 0
2479 2467 621 0
2473 154 2467 0
2473 2467 2479 0
623 2473 2479 0
2480 2477 624 0
2479 621 2477 0
2479 2477 2480 0
623 2479 2480 0
2481 2480 624 0
2476 623 2480 0
2476 2480 2481 0
156 2476 2481 0
2483 2478 157 0
2482 624 2478 0
2482 2478 2483 0
625 2482 2483 0
2484 2481 624 0
2461 156 2481 0
2461 2481 2484 0
620 2461 2484 0
2485 2482 625 0
2484 624 2482 0
2484 2482 2485 0
620 2484 2485 0
2486 2485 625 0
2464 620 2485 0
2464 2485 2486 0
39 2464 2486 0
2488 2466 40 0
2487 622 2466 0
2487 2466 2488 0
627 2487 2488 0
2490 2471 622 0
2489 157 2471 0
2489 2471 2490 0
626 2489 2490 0
2491 2487 627 0
2490 622 2487 0
2490 2487 2491 0
626 2490 2491 0
2493 2491 627 0
2492 626 2491 0
2492 2491 2493 0
158 2492 2493 0
2495 2483 157 0
2494 625 2483 0
2494 2483 2495 0
628 2494 2495 0
2496 2486 625 0
2392 39 2486 0
2392 2486 2496 0
603 2392 2496 0
2497 2494 628 0
2496 625 2494 0
2496 2494 2497 0
603 2496 2497 0
2498 2497 628 0
2397 603 2497 0
2397 2497 2498 0
153 2397 2498 0
2500 2492 158 0
2499 626 2492 0
2499 2492 2500 0
629 2499 2500 0
2501 2489 626 0
2495 157 2489 0
2495 2489 2501 0
628 2495 2501 0
2502 2499 629 0
2501 626 2499 0
2501 2499 2502 0
628 2501 2502 0
2503 2502 629 0
2498 628 2502 0
2498 2502 2503 0
153 2498 2503 0
2505 2500 158 0
2504 629 2500 0
2504 2500 2505 0
630 2504 2505 0
2506 2503 629 0
2411 153 2503 0
2411 2503 2506 0
608 2411 2506 0
2507 2504 630 0
2506 629 2504 0
2506 2504 2507 0
608 2506 2507 0
2508 2507 630 0
2416 608 2507 0
2416 2507 2508 0
10 2416 2508 0
2510 2418 11 0
2509 610 2418 0
2509 2418 2510 0
632 2509 2510 0
2512 2423 610 0
2511 155 2423 0
2511 2423 2512 0
631 2511 2512 0
2513 2509 632 0
2512 610 2509 0
2512 2509 2513 0
631 2512 2513 0
2515 2513 632 0
2514 631 2513 0
2514 2513 2515 0
160 2514 2515 0
2517 2437 155 0
2516 615 2437 0
2516 2437 2517 0
634 2516 2517 0
2519 2442 615 0
2518 40 2442 0
2518 2442 2519 0
633 2518 2519 0
2520 2516 634 0
2519 615 2516 0
2519 2516 2520 0
633 2519 2520 0
2522 2520 634 0
2521 633 2520 0
2521 2520 2522 0
159 2521 2522 0
2524 2514 160 0
2523 631 2514 0
2523 2514 2524 0
635 2523 2524 0
2525 2511 631 0
2517 155 2511 0
2517 2511 2525 0
634 2517 2525 0
2526 2523 635 0
2525 631 2523 0
2525 2523 2526 0
634 2525 2526 0
2527 2526 635 0
2522 634 2526 0
2522 2526 2527 0
159 2522 2527 0
2529 2524 160 0
2528 635 2524 0
2528 2524 2529 0
637 2528 2529 0
2531 2527 635 0
2530 159 2527 0
2530 2527 2531 0
636 2530 2531 0
2532 2528 637 0
2531 635 2528 0
2531 2528 2532 0
636 2531 2532 0
2534 2532 637 0
2533 636 2532 0
2533 2532 2534 0
41 2533 2534 0
2536 2488 40 0
2535 627 2488 0
2535 2488 2536 0
639 2535 2536 0
2538 2493 627 0
2537 158 2493 0
2537 2493 2538 0
638 2537 2538 0
2539 2535 639 0
2538 627 2535 0
2538 2535 2539 0
638 2538 2539 0
2541 2539 639 0
2540 638 2539 0
2540 2539 2541 0
162 2540 2541 0
2543 2505 158 0
2542 630 2505 0
2542 2505 2543 0
641 2542 2543 0
2545 2508 630 0
2544 10 2508 0
2544 2508 2545 0
640 2544 2545 0
2546 2542 641 0
2545 630 2542 0
2545 2542 2546 0
640 2545 2546 0
2548 2546 641 0
2547 640 2546 0
2547 2546 2548 0
161 2547 2548 0
2550 2540 162 0
2549 638 2540 0
2549 2540 2550 0
642 2549 2550 0
2551 2537 638 0
2543 158 2537 0
2543 2537 2551 0
641 2543 2551 0
2552 2549 642 0
2551 638 2549 0
2551 2549 2552 0
641 2551 2552 0
2553 2552 642 0
2548 641 2552 0
2548 2552 2553 0
161 2548 2553 0
2555 2550 162 0
2554 642 2550 0
2554 2550 2555 0
644 2554 2555 0
2557 2553 642 0
2556 161 2553 0
2556 2553 2557 0
643 2556 2557 0
2558 2554 644 0
2557 642 2554 0
2557 2554 2558 0
643 2557 2558 0
2560 2558 644 0
2559 643 2558 0
2559 2558 2560 0
4122 2559 2560 0
2562 2533 41 0
2561 636 2533 0
2561 2533 2562 0
646 2561 2562 0
2564 2530 636 0
2563 159 2530 0
2563 2530 2564 0
645 2563 2564 0
2565 2561 646 0
2564 636 2561 0
2564 2561 2565 0
645 2564 2565 0
2567 2565 646 0
2566 645 2565 0
2566 2565 2567 0
163 2566 2567 0
2569 2521 159 0
2568 633 2521 0
2568 2521 2569 0
647 2568 2569 0
2570 2518 633 0
2536 40 2518 0
2536 2518 2570 0
639 2536 2570 0
2571 2568 647 0
2570 633 2568 0
2570 2568 2571 0
639 2570 2571 0
2572 2571 647 0
2541 639 2571 0
2541 2571 2572 0
162 2541 2572 0
2574 2566 163 0
2573 645 2566 0
2573 2566 2574 0
648 2573 2574 0
2575 2563 645 0
2569 159 2563 0
2569 2563 2575 0
647 2569 2575 0
2576 2573 648 0
2575 645 2573 0
2575 2573 2576 0
647 2575 2576 0
2577 2576 648 0
2572 647 2576 0
2572 2576 2577 0
162 2572 2577 0
2579 2574 163 0
2578 648 2574 0
2578 2574 2579 0
649 2578 2579 0
2580 2577 648 0
2555 162 2577 0
2555 2577 2580 0
644 2555 2580 0
2581 2578 649 0
2580 648 2578 0
2580 2578 2581 0
644 2580 2581 0
2582 2581 649 0
2560 644 2581 0
2560 2581 2582 0
4122 2560 2582 0
2584 2562 41 0
2583 646 2562 0
2583 2562 2584 0
651 2583 2584 0
2586 2567 646 0
2585 163 2567 0
2585 2567 2586 0
650 2585 2586 0
2587 2583 651 0
2586 646 2583 0
2586 2583 2587 0
650 2586 2587 0
2589 2587 651 0
2588 650 2587 0
2588 2587 2589 0
164 2588 2589 0
2591 2579 163 0
2590 649 2579 0
2590 2579 2591 0
653 2590 2591 0
2593 2582 649 0
2592 4122 2582 0
2592 2582 2593 0
652 2592 2593 0
2594 2590 653 0
2593 649 2590 0
2593 2590 2594 0
652 2593 2594 0
2595 2594 653 0
4123 652 2594 0
4123 2594 2595 0
4124 4123 2595 0
2597 2588 164 0
2596 650 2588 0
2596 2588 2597 0
654 2596 2597 0
2598 2585 650 0
2591 163 2585 0
2591 2585 2598 0
653 2591 2598 0
2599 2596 654 0
2598 650 2596 0
2598 2596 2599 0
653 2598 2599 0
4125 2599 654 0
2595 653 2599 0
2595 2599 4125 0
4124 2595 4125 0
2600 2597 164 0
4126 654 2597 0
4126 2597 2600 0
4127 4126 2600 0
4128 4125 654 0
4128 654 4126 0
2602 1065 1 0
2601 267 1065 0
2601 1065 2602 0
656 2601 2602 0
2604 1062 267 0
2603 65 1062 0
2603 1062 2604 0
655 2603 2604 0
2605 2601 656 0
2604 267 2601 0
2604 2601 2605 0
655 2604 2605 0
2607 2605 656 0
2606 655 2605 0
2606 2605 2607 0
166 2606 2607 0
2609 1056 65 0
2608 264 1056 0
2608 1056 2609 0
658 2608 2609 0
2611 1053 264 0
2610 16 1053 0
2610 1053 2611 0
657 2610 2611 0
2612 2608 658 0
2611 264 2608 0
2611 2608 2612 0
657 2611 2612 0
2614 2612 658 0
2613 657 2612 0
2613 2612 2614 0
165 2613 2614 0
2616 2606 166 0
2615 655 2606 0
2615 2606 2616 0
659 2615 2616 0
2617 2603 655 0
2609 65 2603 0
2609 2603 2617 0
658 2609 2617 0
2618 2615 659 0
2617 655 2615 0
2617 2615 2618 0
658 2617 2618 0
2619 2618 659 0
2614 658 2618 0
2614 2618 2619 0
165 2614 2619 0
2621 2616 166 0
2620 659 2616 0
2620 2616 2621 0
661 2620 2621 0
2623 2619 659 0
2622 165 2619 0
2622 2619 2623 0
660 2622 2623 0
2624 2620 661 0
2623 659 2620 0
2623 2620 2624 0
660 2623 2624 0
2626 2624 661 0
2625 660 2624 0
2625 2624 2626 0
42 2625 2626 0
2628 1035 16 0
2627 258 1035 0
2627 1035 2628 0
663 2627 2628 0
2630 1032 258 0
2629 62 1032 0
2629 1032 2630 0
662 2629 2630 0
2631 2627 663 0
2630 258 2627 0
2630 2627 2631 0
662 2630 2631 0
2633 2631 663 0
2632 662 2631 0
2632 2631 2633 0
168 2632 2633 0
2635 1026 62 0
2634 255 1026 0
2634 1026 2635 0
665 2634 2635 0
2637 1023 255 0
2636 3 1023 0
2636 1023 2637 0
664 2636 2637 0
2638 2634 665 0
2637 255 2634 0
2637 2634 2638 0
664 2637 2638 0
2640 2638 665 0
2639 664 2638 0
2639 2638 2640 0
167 2639 2640 0
2642 2632 168 0
2641 662 2632 0
2641 2632 2642 0
666 2641 2642 0
2643 2629 662 0
2635 62 2629 0
2635 2629 2643 0
665 2635 2643 0
2644 2641 666 0
2643 662 2641 0
2643 2641 2644 0
665 2643 2644 0
2645 2644 666 0
2640 665 2644 0
2640 2644 2645 0
167 2640 2645 0
2647 2642 168 0
2646 666 2642 0
2646 2642 2647 0
668 2646 2647 0
2649 2645 666 0
2648 167 2645 0
2648 2645 2649 0
667 2648 2649 0
2650 2646 668 0
2649 666 2646 0
2649 2646 2650 0
667 2649 2650 0
2652 2650 668 0
2651 667 2650 0
2651 2650 2652 0
4129 2651 2652 0
2654 2625 42 0
2653 660 2625 0
2653 2625 2654 0
670 2653 2654 0
2656 2622 660 0
2655 165 2622 0
2655 2622 2656 0
669 2655 2656 0
2657 2653 670 0
2656 660 2653 0
2656 2653 2657 0
669 2656 2657 0
2659 2657 670 0
2658 669 2657 0
2658 2657 2659 0
169 2658 2659 0
2661 2613 165 0
2660 657 2613 0
2660 2613 2661 0
671 2660 2661 0
2662 2610 657 0
2628 16 2610 0
2628 2610 2662 0
663 2628 2662 0
2663 2660 671 0
2662 657 2660 0
2662 2660 2663 0
663 2662 2663 0
2664 2663 671 0
2633 663 2663 0
2633 2663 2664 0
168 2633 2664 0
2666 2658 169 0
2665 669 2658 0
2665 2658 2666 0
672 2665 2666 0
2667 2655 669 0
2661 165 2655 0
2661 2655 2667 0
671 2661 2667 0
2668 2665 672 0
2667 669 2665 0
2667 2665 2668 0
671 2667 2668 0
2669 2668 672 0
2664 671 2668 0
2664 2668 2669 0
168 2664 2669 0
2671 2666 169 0
2670 672 2666 0
2670 2666 2671 0
673 2670 2671 0
2672 2669 672 0
2647 168 2669 0
2647 2669 2672 0
668 2647 2672 0
2673 2670 673 0
2672 672 2670 0
2672 2670 2673 0
668 2672 2673 0
2674 2673 673 0
2652 668 2673 0
2652 2673 2674 0
4129 2652 2674 0
2676 2654 42 0
2675 670 2654 0
2675 2654 2676 0
675 2675 2676 0
2678 2659 670 0
2677 169 2659 0
2677 2659 2678 0
674 2677 2678 0
2679 2675 675 0
2678 670 2675 0
2678 2675 2679 0
674 2678 2679 0
2681 2679 675 0
2680 674 2679 0
2680 2679 2681 0
170 2680 2681 0
2683 2671 169 0
2682 673 2671 0
2682 2671 2683 0
4130 2682 2683 0
4131 2674 673 0
4132 4129 2674 0
4132 2674 4131 0
4133 2682 4130 0
4131 673 2682 0
4131 2682 4133 0
4134 2680 170 0
2684 674 2680 0
2684 2680 4134 0
4135 2684 4134 0
2685 2677 674 0
2683 169 2677 0
2683 2677 2685 0
4130 2683 2685 0
4136 2684 4135 0
2685 674 2684 0
2685 2684 4136 0
4130 2685 4136 0
4137 4134 170 0
2686 1002 3 0
4138 4013 1002 0
4138 1002 2686 0
676 4138 2686 0
4139 4138 676 0
4140 4139 676 0
4141 2651 4129 0
4142 667 2651 0
4142 2651 4141 0
4143 2648 667 0
2687 167 2648 0
2687 2648 4143 0
4144 2687 4143 0
4143 667 4142 0
2689 2639 167 0
2688 664 2639 0
2688 2639 2689 0
4145 2688 2689 0
2690 2636 664 0
2686 3 2636 0
2686 2636 2690 0
676 2686 2690 0
4146 2688 4145 0
2690 664 2688 0
2690 2688 4146 0
676 2690 4146 0
4140 676 4146 0
4147 2687 4144 0
2689 167 2687 0
2689 2687 4147 0
4145 2689 4147 0
4148 652 4123 0
4149 2592 652 0
4150 4122 2592 0
4150 2592 4149 0
4149 652 4148 0
4151 2559 4122 0
4152 643 2559 0
4152 2559 4151 0
4153 2556 643 0
2691 161 2556 0
2691 2556 4153 0
4154 2691 4153 0
4153 643 4152 0
2693 2547 161 0
2692 640 2547 0
2692 2547 2693 0
678 2692 2693 0
2695 2544 640 0
2694 10 2544 0
2694 2544 2695 0
677 2694 2695 0
2696 2692 678 0
2695 640 2692 0
2695 2692 2696 0
677 2695 2696 0
4155 2696 678 0
2697 677 2696 0
2697 2696 4155 0
4156 2697 4155 0
4157 2691 4154 0
2693 161 2691 0
2693 2691 4157 0
678 2693 4157 0
678 4157 4158 0
4155 678 4158 0
2699 2415 10 0
2698 607 2415 0
2698 2415 2699 0
680 2698 2699 0
2701 2412 607 0
2700 152 2412 0
2700 2412 2701 0
679 2700 2701 0
2702 2698 680 0
2701 607 2698 0
2701 2698 2702 0
679 2701 2702 0
2704 2702 680 0
2703 679 2702 0
2703 2702 2704 0
172 2703 2704 0
2706 2403 152 0
2705 604 2403 0
2705 2403 2706 0
682 2705 2706 0
2708 2400 604 0
2707 38 2400 0
2707 2400 2708 0
681 2707 2708 0
2709 2705 682 0
2708 604 2705 0
2708 2705 2709 0
681 2708 2709 0
2711 2709 682 0
2710 681 2709 0
2710 2709 2711 0
171 2710 2711 0
2713 2703 172 0
2712 679 2703 0
2712 2703 2713 0
683 2712 2713 0
2714 2700 679 0
2706 152 2700 0
2706 2700 2714 0
682 2706 2714 0
2715 2712 683 0
2714 679 2712 0
2714 2712 2715 0
682 2714 2715 0
2716 2715 683 0
2711 682 2715 0
2711 2715 2716 0
171 2711 2716 0
2718 2713 172 0
2717 683 2713 0
2717 2713 2718 0
4159 2717 2718 0
2720 2716 683 0
2719 171 2716 0
2719 2716 2720 0
684 2719 2720 0
2721 2717 4159 0
2720 683 2717 0
2720 2717 2721 0
684 2720 2721 0
4160 2721 4159 0
4161 684 2721 0
4161 2721 4160 0
2723 2367 38 0
2722 595 2367 0
2722 2367 2723 0
686 2722 2723 0
2725 2364 595 0
2724 149 2364 0
2724 2364 2725 0
685 2724 2725 0
2726 2722 686 0
2725 595 2722 0
2725 2722 2726 0
685 2725 2726 0
2728 2726 686 0
2727 685 2726 0
2727 2726 2728 0
173 2727 2728 0
2730 2355 149 0
2729 592 2355 0
2729 2355 2730 0
687 2729 2730 0
2731 2352 592 0
2602 1 2352 0
2602 2352 2731 0
656 2602 2731 0
2732 2729 687 0
2731 592 2729 0
2731 2729 2732 0
656 2731 2732 0
2733 2732 687 0
2607 656 2732 0
2607 2732 2733 0
166 2607 2733 0
2735 2727 173 0
2734 685 2727 0
2734 2727 2735 0
688 2734 2735 0
2736 2724 685 0
2730 149 2724 0
2730 2724 2736 0
687 2730 2736 0
2737 2734 688 0
2736 685 2734 0
2736 2734 2737 0
687 2736 2737 0
2738 2737 688 0
2733 687 2737 0
2733 2737 2738 0
166 2733 2738 0
2740 2735 173 0
2739 688 2735 0
2739 2735 2740 0
689 2739 2740 0
2741 2738 688 0
2621 166 2738 0
2621 2738 2741 0
661 2621 2741 0
2742 2739 689 0
2741 688 2739 0
2741 2739 2742 0
661 2741 2742 0
2743 2742 689 0
2626 661 2742 0
2626 2742 2743 0
42 2626 2743 0
2744 684 4161 0
2744 4161 4162 0
691 2744 4162 0
2746 2719 684 0
2745 171 2719 0
2745 2719 2746 0
690 2745 2746 0
2747 2744 691 0
2746 684 2744 0
2746 2744 2747 0
690 2746 2747 0
2749 2747 691 0
2748 690 2747 0
2748 2747 2749 0
174 2748 2749 0
2751 2710 171 0
2750 681 2710 0
2750 2710 2751 0
692 2750 2751 0
2752 2707 681 0
2723 38 2707 0
2723 2707 2752 0
686 2723 2752 0
2753 2750 692 0
2752 681 2750 0
2752 2750 2753 0
686 2752 2753 0
2754 2753 692 0
2728 686 2753 0
2728 2753 2754 0
173 2728 2754 0
2756 2748 174 0
2755 690 2748 0
2755 2748 2756 0
693 2755 2756 0
2757 2745 690 0
2751 171 2745 0
2751 2745 2757 0
692 2751 2757 0
2758 2755 693 0
2757 690 2755 0
2757 2755 2758 0
692 2757 2758 0
2759 2758 693 0
2754 692 2758 0
2754 2758 2759 0
173 2754 2759 0
2761 2756 174 0
2760 693 2756 0
2760 2756 2761 0
694 2760 2761 0
2762 2759 693 0
2740 173 2759 0
2740 2759 2762 0
689 2740 2762 0
2763 2760 694 0
2762 693 2760 0
2762 2760 2763 0
689 2762 2763 0
2764 2763 694 0
2743 689 2763 0
2743 2763 2764 0
42 2743 2764 0
4163 691 4162 0
2766 2749 691 0
2765 174 2749 0
2765 2749 2766 0
4164 2765 2766 0
2766 691 4163 0
2766 4163 4165 0
4164 2766 4165 0
2768 2761 174 0
2767 694 2761 0
2767 2761 2768 0
695 2767 2768 0
2769 2764 694 0
2676 42 2764 0
2676 2764 2769 0
675 2676 2769 0
2770 2767 695 0
2769 694 2767 0
2769 2767 2770 0
675 2769 2770 0
2771 2770 695 0
2681 675 2770 0
2681 2770 2771 0
170 2681 2771 0
2772 2765 4164 0
2768 174 2765 0
2768 2765 2772 0
695 2768 2772 0
2772 4164 4166 0
2772 4166 4167 0
695 2772 4167 0
2771 695 4167 0
2771 4167 4168 0
170 2771 4168 0
4137 170 4168 0
4169 2697 4156 0
2773 677 2697 0
2773 2697 4169 0
4170 2773 4169 0
2774 2694 677 0
2699 10 2694 0
2699 2694 2774 0
680 2699 2774 0
2775 2773 4170 0
2774 677 2773 0
2774 2773 2775 0
680 2774 2775 0
2776 2775 4170 0
2704 680 2775 0
2704 2775 2776 0
172 2704 2776 0
2777 4171 4172 0
2776 4170 4171 0
2776 4171 2777 0
172 2776 2777 0
4173 2777 4172 0
2718 172 2777 0
2718 2777 4173 0
4159 2718 4173 0
2778 4174 4175 0
4176 4174 2778 0
696 4176 2778 0
4177 4176 696 0
2780 4177 696 0
2779 4178 4177 0
2779 4177 2780 0
4179 2779 2780 0
4180 2779 4179 0
4181 4178 2779 0
4181 2779 4180 0
697 4182 4183 0
697 4183 4184 0
4185 697 4184 0
176 4185 4186 0
698 4187 4188 0
2781 4189 4190 0
4188 4189 2781 0
698 4188 2781 0
2783 2781 4190 0
2782 698 2781 0
2782 2781 2783 0
175 2782 2783 0
2785 4185 176 0
2784 697 4185 0
2784 4185 2785 0
699 2784 2785 0
4191 4182 697 0
2786 2784 699 0
4191 697 2784 0
4191 2784 2786 0
4190 4191 2786 0
2787 2786 699 0
2783 4190 2786 0
2783 2786 2787 0
175 2783 2787 0
2789 2785 176 0
2788 699 2785 0
2788 2785 2789 0
701 2788 2789 0
2791 2787 699 0
2790 175 2787 0
2790 2787 2791 0
700 2790 2791 0
2792 2788 701 0
2791 699 2788 0
2791 2788 2792 0
700 2791 2792 0
2794 2792 701 0
2793 700 2792 0
2793 2792 2794 0
44 2793 2794 0
2796 2778 4175 0
2795 696 2778 0
2795 2778 2796 0
703 2795 2796 0
2798 2780 696 0
2797 4179 2780 0
2797 2780 2798 0
702 2797 2798 0
2799 2795 703 0
2798 696 2795 0
2798 2795 2799 0
702 2798 2799 0
2801 2799 703 0
2800 702 2799 0
2800 2799 2801 0
178 2800 2801 0
2803 4192 4179 0
2802 4193 4192 0
2802 4192 2803 0
704 2802 2803 0
4194 2802 704 0
4195 4193 2802 0
4195 2802 4194 0
2805 4194 704 0
2804 4196 4194 0
2804 4194 2805 0
177 2804 2805 0
2807 2800 178 0
2806 702 2800 0
2806 2800 2807 0
705 2806 2807 0
2808 2797 702 0
2803 4179 2797 0
2803 2797 2808 0
704 2803 2808 0
2809 2806 705 0
2808 702 2806 0
2808 2806 2809 0
704 2808 2809 0
2810 2809 705 0
2805 704 2809 0
2805 2809 2810 0
177 2805 2810 0
2812 2807 178 0
2811 705 2807 0
2811 2807 2812 0
707 2811 2812 0
2814 2810 705 0
2813 177 2810 0
2813 2810 2814 0
706 2813 2814 0
2815 2811 707 0
2814 705 2811 0
2814 2811 2815 0
706 2814 2815 0
2817 2815 707 0
2816 706 2815 0
2816 2815 2817 0
43 2816 2817 0
2819 2793 44 0
2818 700 2793 0
2818 2793 2819 0
709 2818 2819 0
2821 2790 700 0
2820 175 2790 0
2820 2790 2821 0
708 2820 2821 0
2822 2818 709 0
2821 700 2818 0
2821 2818 2822 0
708 2821 2822 0
2824 2822 709 0
2823 708 2822 0
2823 2822 2824 0
179 2823 2824 0
2826 2782 175 0
2825 698 2782 0
2825 2782 2826 0
710 2825 2826 0
2827 4187 698 0
2796 4175 4187 0
2796 4187 2827 0
703 2796 2827 0
2828 2825 710 0
2827 698 2825 0
2827 2825 2828 0
703 2827 2828 0
2829 2828 710 0
2801 703 2828 0
2801 2828 2829 0
178 2801 2829 0
2831 2823 179 0
2830 708 2823 0
2830 2823 2831 0
711 2830 2831 0
2832 2820 708 0
2826 175 2820 0
2826 2820 2832 0
710 2826 2832 0
2833 2830 711 0
2832 708 2830 0
2832 2830 2833 0
710 2832 2833 0
2834 2833 711 0
2829 710 2833 0
2829 2833 2834 0
178 2829 2834 0
2836 2831 179 0
2835 711 2831 0
2835 2831 2836 0
712 2835 2836 0
2837 2834 711 0
2812 178 2834 0
2812 2834 2837 0
707 2812 2837 0
2838 2835 712 0
2837 711 2835 0
2837 2835 2838 0
707 2837 2838 0
2839 2838 712 0
2817 707 2838 0
2817 2838 2839 0
43 2817 2839 0
2841 2819 44 0
2840 709 2819 0
2840 2819 2841 0
714 2840 2841 0
2843 2824 709 0
2842 179 2824 0
2842 2824 2843 0
713 2842 2843 0
2844 2840 714 0
2843 709 2840 0
2843 2840 2844 0
713 2843 2844 0
2846 2844 714 0
2845 713 2844 0
2845 2844 2846 0
181 2845 2846 0
2848 2836 179 0
2847 712 2836 0
2847 2836 2848 0
716 2847 2848 0
2850 2839 712 0
2849 43 2839 0
2849 2839 2850 0
715 2849 2850 0
2851 2847 716 0
2850 712 2847 0
2850 2847 2851 0
715 2850 2851 0
2853 2851 716 0
2852 715 2851 0
2852 2851 2853 0
180 2852 2853 0
2855 2845 181 0
2854 713 2845 0
2854 2845 2855 0
717 2854 2855 0
2856 2842 713 0
2848 179 2842 0
2848 2842 2856 0
716 2848 2856 0
2857 2854 717 0
2856 713 2854 0
2856 2854 2857 0
716 2856 2857 0
2858 2857 717 0
2853 716 2857 0
2853 2857 2858 0
180 2853 2858 0
2860 2855 181 0
2859 717 2855 0
2859 2855 2860 0
719 2859 2860 0
2862 2858 717 0
2861 180 2858 0
2861 2858 2862 0
718 2861 2862 0
2863 2859 719 0
2862 717 2859 0
2862 2859 2863 0
718 2862 2863 0
2865 2863 719 0
2864 718 2863 0
2864 2863 2865 0
2 2864 2865 0
2867 4197 4198 0
2866 4199 4197 0
2866 4197 2867 0
45 2866 2867 0
2868 2866 45 0
4200 4199 2866 0
4200 2866 2868 0
4201 4200 2868 0
2870 2868 45 0
2869 4201 2868 0
2869 2868 2870 0
721 2869 2870 0
2871 4202 4201 0
4203 4202 2871 0
720 4203 2871 0
2872 2869 721 0
2871 4201 2869 0
2871 2869 2872 0
720 2871 2872 0
2874 2872 721 0
2873 720 2872 0
2873 2872 2874 0
183 2873 2874 0
2876 4204 4205 0
2875 4206 4204 0
2875 4204 2876 0
182 2875 2876 0
2878 2873 183 0
2877 720 2873 0
2877 2873 2878 0
722 2877 2878 0
4207 4203 720 0
2879 2877 722 0
4207 720 2877 0
4207 2877 2879 0
4205 4207 2879 0
2880 2879 722 0
2876 4205 2879 0
2876 2879 2880 0
182 2876 2880 0
2882 2878 183 0
2881 722 2878 0
2881 2878 2882 0
724 2881 2882 0
2884 2880 722 0
2883 182 2880 0
2883 2880 2884 0
723 2883 2884 0
2885 2881 724 0
2884 722 2881 0
2884 2881 2885 0
723 2884 2885 0
2887 2885 724 0
2886 723 2885 0
2886 2885 2887 0
12 2886 2887 0
2889 2886 12 0
2888 723 2886 0
2888 2886 2889 0
726 2888 2889 0
2891 2883 723 0
2890 182 2883 0
2890 2883 2891 0
725 2890 2891 0
2892 2888 726 0
2891 723 2888 0
2891 2888 2892 0
725 2891 2892 0
2894 2892 726 0
2893 725 2892 0
2893 2892 2894 0
184 2893 2894 0
2895 2875 182 0
4208 4206 2875 0
4208 2875 2895 0
727 4208 2895 0
4209 4208 727 0
2896 4209 727 0
4210 4209 2896 0
4211 4210 2896 0
2898 2893 184 0
2897 725 2893 0
2897 2893 2898 0
728 2897 2898 0
2899 2890 725 0
2895 182 2890 0
2895 2890 2899 0
727 2895 2899 0
2900 2897 728 0
2899 725 2897 0
2899 2897 2900 0
727 2899 2900 0
2901 2900 728 0
2896 727 2900 0
2896 2900 2901 0
4211 2896 2901 0
2903 2898 184 0
2902 728 2898 0
2902 2898 2903 0
730 2902 2903 0
2905 2901 728 0
2904 4211 2901 0
2904 2901 2905 0
729 2904 2905 0
2906 2902 730 0
2905 728 2902 0
2905 2902 2906 0
729 2905 2906 0
2908 2906 730 0
2907 729 2906 0
2907 2906 2908 0
46 2907 2908 0
2910 2907 46 0
2909 729 2907 0
2909 2907 2910 0
731 2909 2910 0
4212 2904 729 0
4213 4211 2904 0
4213 2904 4212 0
2911 2909 731 0
4212 729 2909 0
4212 2909 2911 0
4214 4212 2911 0
4215 2911 731 0
4216 4214 2911 0
4216 2911 4215 0
2913 2910 46 0
2912 731 2910 0
2912 2910 2913 0
732 2912 2913 0
4217 4215 731 0
4218 2912 732 0
4217 731 2912 0
4217 2912 4218 0
2914 4218 732 0
4219 4218 2914 0
4220 4219 2914 0
2916 2889 12 0
2915 726 2889 0
2915 2889 2916 0
734 2915 2916 0
2918 2894 726 0
2917 184 2894 0
2917 2894 2918 0
733 2917 2918 0
2919 2915 734 0
2918 726 2915 0
2918 2915 2919 0
733 2918 2919 0
2921 2919 734 0
2920 733 2919 0
2920 2919 2921 0
186 2920 2921 0
2923 2903 184 0
2922 730 2903 0
2922 2903 2923 0
736 2922 2923 0
2925 2908 730 0
2924 46 2908 0
2924 2908 2925 0
735 2924 2925 0
2926 2922 736 0
2925 730 2922 0
2925 2922 2926 0
735 2925 2926 0
2928 2926 736 0
2927 735 2926 0
2927 2926 2928 0
185 2927 2928 0
2930 2920 186 0
2929 733 2920 0
2929 2920 2930 0
737 2929 2930 0
2931 2917 733 0
2923 184 2917 0
2923 2917 2931 0
736 2923 2931 0
2932 2929 737 0
2931 733 2929 0
2931 2929 2932 0
736 2931 2932 0
2933 2932 737 0
2928 736 2932 0
2928 2932 2933 0
185 2928 2933 0
2935 2930 186 0
2934 737 2930 0
2934 2930 2935 0
739 2934 2935 0
2937 2933 737 0
2936 185 2933 0
2936 2933 2937 0
738 2936 2937 0
2938 2934 739 0
2937 737 2934 0
2937 2934 2938 0
738 2937 2938 0
2940 2938 739 0
2939 738 2938 0
2939 2938 2940 0
47 2939 2940 0
2942 2913 46 0
2941 732 2913 0
2941 2913 2942 0
741 2941 2942 0
2944 2914 732 0
2943 4220 2914 0
2943 2914 2944 0
740 2943 2944 0
2945 2941 741 0
2944 732 2941 0
2944 2941 2945 0
740 2944 2945 0
2947 2945 741 0
2946 740 2945 0
2946 2945 2947 0
187 2946 2947 0
2948 4221 4220 0
4222 4221 2948 0
4223 4222 2948 0
2949 4224 4223 0
4186 4224 2949 0
176 4186 2949 0
2951 2946 187 0
2950 740 2946 0
2950 2946 2951 0
742 2950 2951 0
2952 2943 740 0
2948 4220 2943 0
2948 2943 2952 0
4223 2948 2952 0
2953 2950 742 0
2952 740 2950 0
2952 2950 2953 0
4223 2952 2953 0
2954 2953 742 0
2949 4223 2953 0
2949 2953 2954 0
176 2949 2954 0
2956 2951 187 0
2955 742 2951 0
2955 2951 2956 0
743 2955 2956 0
2957 2954 742 0
2789 176 2954 0
2789 2954 2957 0
701 2789 2957 0
2958 2955 743 0
2957 742 2955 0
2957 2955 2958 0
701 2957 2958 0
2959 2958 743 0
2794 701 2958 0
2794 2958 2959 0
44 2794 2959 0
2961 2939 47 0
2960 738 2939 0
2960 2939 2961 0
745 2960 2961 0
2963 2936 738 0
2962 185 2936 0
2962 2936 2963 0
744 2962 2963 0
2964 2960 745 0
2963 738 2960 0
2963 2960 2964 0
744 2963 2964 0
2966 2964 745 0
2965 744 2964 0
2965 2964 2966 0
188 2965 2966 0
2968 2927 185 0
2967 735 2927 0
2967 2927 2968 0
746 2967 2968 0
2969 2924 735 0
2942 46 2924 0
2942 2924 2969 0
741 2942 2969 0
2970 2967 746 0
2969 735 2967 0
2969 2967 2970 0
741 2969 2970 0
2971 2970 746 0
2947 741 2970 0
2947 2970 2971 0
187 2947 2971 0
2973 2965 188 0
2972 744 2965 0
2972 2965 2973 0
747 2972 2973 0
2974 2962 744 0
2968 185 2962 0
2968 2962 2974 0
746 2968 2974 0
2975 2972 747 0
2974 744 2972 0
2974 2972 2975 0
746 2974 2975 0
2976 2975 747 0
2971 746 2975 0
2971 2975 2976 0
187 2971 2976 0
2978 2973 188 0
2977 747 2973 0
2977 2973 2978 0
748 2977 2978 0
2979 2976 747 0
2956 187 2976 0
2956 2976 2979 0
743 2956 2979 0
2980 2977 748 0
2979 747 2977 0
2979 2977 2980 0
743 2979 2980 0
2981 2980 748 0
2959 743 2980 0
2959 2980 2981 0
44 2959 2981 0
2983 2961 47 0
2982 745 2961 0
2982 2961 2983 0
750 2982 2983 0
2985 2966 745 0
2984 188 2966 0
2984 2966 2985 0
749 2984 2985 0
2986 2982 750 0
2985 745 2982 0
2985 2982 2986 0
749 2985 2986 0
2988 2986 750 0
2987 749 2986 0
2987 2986 2988 0
189 2987 2988 0
2990 2978 188 0
2989 748 2978 0
2989 2978 2990 0
751 2989 2990 0
2991 2981 748 0
2841 44 2981 0
2841 2981 2991 0
714 2841 2991 0
2992 2989 751 0
2991 748 2989 0
2991 2989 2992 0
714 2991 2992 0
2993 2992 751 0
2846 714 2992 0
2846 2992 2993 0
181 2846 2993 0
2995 2987 189 0
2994 749 2987 0
2994 2987 2995 0
752 2994 2995 0
2996 2984 749 0
2990 188 2984 0
2990 2984 2996 0
751 2990 2996 0
2997 2994 752 0
2996 749 2994 0
2996 2994 2997 0
751 2996 2997 0
2998 2997 752 0
2993 751 2997 0
2993 2997 2998 0
181 2993 2998 0
3000 2995 189 0
2999 752 2995 0
2999 2995 3000 0
753 2999 3000 0
3001 2998 752 0
2860 181 2998 0
2860 2998 3001 0
719 2860 3001 0
3002 2999 753 0
3001 752 2999 0
3001 2999 3002 0
719 3001 3002 0
3003 3002 753 0
2865 719 3002 0
2865 3002 3003 0
2 2865 3003 0
754 4225 4226 0
754 4226 4227 0
2600 4227 4127 0
3004 754 4227 0
3004 4227 2600 0
164 3004 2600 0
3006 4228 4229 0
3005 4198 4228 0
3005 4228 3006 0
756 3005 3006 0
3008 2867 4198 0
3007 45 2867 0
3007 2867 3008 0
755 3007 3008 0
3009 3005 756 0
3008 4198 3005 0
3008 3005 3009 0
755 3008 3009 0
3011 3009 756 0
3010 755 3009 0
3010 3009 3011 0
190 3010 3011 0
3013 3004 164 0
3012 754 3004 0
3012 3004 3013 0
757 3012 3013 0
3014 4225 754 0
3006 4229 4225 0
3006 4225 3014 0
756 3006 3014 0
3015 3012 757 0
3014 754 3012 0
3014 3012 3015 0
756 3014 3015 0
3016 3015 757 0
3011 756 3015 0
3011 3015 3016 0
190 3011 3016 0
2589 3013 164 0
3017 757 3013 0
3017 3013 2589 0
651 3017 2589 0
3019 3016 757 0
3018 190 3016 0
3018 3016 3019 0
758 3018 3019 0
3020 3017 651 0
3019 757 3017 0
3019 3017 3020 0
758 3019 3020 0
2584 3020 651 0
3021 758 3020 0
3021 3020 2584 0
41 3021 2584 0
3023 2870 45 0
3022 721 2870 0
3022 2870 3023 0
760 3022 3023 0
3025 2874 721 0
3024 183 2874 0
3024 2874 3025 0
759 3024 3025 0
3026 3022 760 0
3025 721 3022 0
3025 3022 3026 0
759 3025 3026 0
3028 3026 760 0
3027 759 3026 0
3027 3026 3028 0
192 3027 3028 0
3030 2882 183 0
3029 724 2882 0
3029 2882 3030 0
762 3029 3030 0
3032 2887 724 0
3031 12 2887 0
3031 2887 3032 0
761 3031 3032 0
3033 3029 762 0
3032 724 3029 0
3032 3029 3033 0
761 3032 3033 0
3035 3033 762 0
3034 761 3033 0
3034 3033 3035 0
191 3034 3035 0
3037 3027 192 0
3036 759 3027 0
3036 3027 3037 0
763 3036 3037 0
3038 3024 759 0
3030 183 3024 0
3030 3024 3038 0
762 3030 3038 0
3039 3036 763 0
3038 759 3036 0
3038 3036 3039 0
762 3038 3039 0
3040 3039 763 0
3035 762 3039 0
3035 3039 3040 0
191 3035 3040 0
3042 3037 192 0
3041 763 3037 0
3041 3037 3042 0
765 3041 3042 0
3044 3040 763 0
3043 191 3040 0
3043 3040 3044 0
764 3043 3044 0
3045 3041 765 0
3044 763 3041 0
3044 3041 3045 0
764 3044 3045 0
3047 3045 765 0
3046 764 3045 0
3046 3045 3047 0
48 3046 3047 0
3049 3021 41 0
3048 758 3021 0
3048 3021 3049 0
767 3048 3049 0
3051 3018 758 0
3050 190 3018 0
3050 3018 3051 0
766 3050 3051 0
3052 3048 767 0
3051 758 3048 0
3051 3048 3052 0
766 3051 3052 0
3054 3052 767 0
3053 766 3052 0
3053 3052 3054 0
193 3053 3054 0
3056 3010 190 0
3055 755 3010 0
3055 3010 3056 0
768 3055 3056 0
3057 3007 755 0
3023 45 3007 0
3023 3007 3057 0
760 3023 3057 0
3058 3055 768 0
3057 755 3055 0
3057 3055 3058 0
760 3057 3058 0
3059 3058 768 0
3028 760 3058 0
3028 3058 3059 0
192 3028 3059 0
3061 3053 193 0
3060 766 3053 0
3060 3053 3061 0
769 3060 3061 0
3062 3050 766 0
3056 190 3050 0
3056 3050 3062 0
768 3056 3062 0
3063 3060 769 0
3062 766 3060 0
3062 3060 3063 0
768 3062 3063 0
3064 3063 769 0
3059 768 3063 0
3059 3063 3064 0
192 3059 3064 0
3066 3061 193 0
3065 769 3061 0
3065 3061 3066 0
770 3065 3066 0
3067 3064 769 0
3042 192 3064 0
3042 3064 3067 0
765 3042 3067 0
3068 3065 770 0
3067 769 3065 0
3067 3065 3068 0
765 3067 3068 0
3069 3068 770 0
3047 765 3068 0
3047 3068 3069 0
48 3047 3069 0
2534 3049 41 0
3070 767 3049 0
3070 3049 2534 0
637 3070 2534 0
3072 3054 767 0
3071 193 3054 0
3071 3054 3072 0
771 3071 3072 0
3073 3070 637 0
3072 767 3070 0
3072 3070 3073 0
771 3072 3073 0
2529 3073 637 0
3074 771 3073 0
3074 3073 2529 0
160 3074 2529 0
3076 3066 193 0
3075 770 3066 0
3075 3066 3076 0
773 3075 3076 0
3078 3069 770 0
3077 48 3069 0
3077 3069 3078 0
772 3077 3078 0
3079 3075 773 0
3078 770 3075 0
3078 3075 3079 0
772 3078 3079 0
3081 3079 773 0
3080 772 3079 0
3080 3079 3081 0
194 3080 3081 0
3083 3074 160 0
3082 771 3074 0
3082 3074 3083 0
774 3082 3083 0
3084 3071 771 0
3076 193 3071 0
3076 3071 3084 0
773 3076 3084 0
3085 3082 774 0
3084 771 3082 0
3084 3082 3085 0
773 3084 3085 0
3086 3085 774 0
3081 773 3085 0
3081 3085 3086 0
194 3081 3086 0
2515 3083 160 0
3087 774 3083 0
3087 3083 2515 0
632 3087 2515 0
3089 3086 774 0
3088 194 3086 0
3088 3086 3089 0
775 3088 3089 0
3090 3087 632 0
3089 774 3087 0
3089 3087 3090 0
775 3089 3090 0
2510 3090 632 0
3091 775 3090 0
3091 3090 2510 0
11 3091 2510 0
3093 2916 12 0
3092 734 2916 0
3092 2916 3093 0
777 3092 3093 0
3095 2921 734 0
3094 186 2921 0
3094 2921 3095 0
776 3094 3095 0
3096 3092 777 0
3095 734 3092 0
3095 3092 3096 0
776 3095 3096 0
3098 3096 777 0
3097 776 3096 0
3097 3096 3098 0
196 3097 3098 0
3100 2935 186 0
3099 739 2935 0
3099 2935 3100 0
779 3099 3100 0
3102 2940 739 0
3101 47 2940 0
3101 2940 3102 0
778 3101 3102 0
3103 3099 779 0
3102 739 3099 0
3102 3099 3103 0
778 3102 3103 0
3105 3103 779 0
3104 778 3103 0
3104 3103 3105 0
195 3104 3105 0
3107 3097 196 0
3106 776 3097 0
3106 3097 3107 0
780 3106 3107 0
3108 3094 776 0
3100 186 3094 0
3100 3094 3108 0
779 3100 3108 0
3109 3106 780 0
3108 776 3106 0
3108 3106 3109 0
779 3108 3109 0
3110 3109 780 0
3105 779 3109 0
3105 3109 3110 0
195 3105 3110 0
3112 3107 196 0
3111 780 3107 0
3111 3107 3112 0
782 3111 3112 0
3114 3110 780 0
3113 195 3110 0
3113 3110 3114 0
781 3113 3114 0
3115 3111 782 0
3114 780 3111 0
3114 3111 3115 0
781 3114 3115 0
3117 3115 782 0
3116 781 3115 0
3116 3115 3117 0
50 3116 3117 0
3119 2983 47 0
3118 750 2983 0
3118 2983 3119 0
784 3118 3119 0
3121 2988 750 0
3120 189 2988 0
3120 2988 3121 0
783 3120 3121 0
3122 3118 784 0
3121 750 3118 0
3121 3118 3122 0
783 3121 3122 0
3124 3122 784 0
3123 783 3122 0
3123 3122 3124 0
198 3123 3124 0
3126 3000 189 0
3125 753 3000 0
3125 3000 3126 0
786 3125 3126 0
3128 3003 753 0
3127 2 3003 0
3127 3003 3128 0
785 3127 3128 0
3129 3125 786 0
3128 753 3125 0
3128 3125 3129 0
785 3128 3129 0
3131 3129 786 0
3130 785 3129 0
3130 3129 3131 0
197 3130 3131 0
3133 3123 198 0
3132 783 3123 0
3132 3123 3133 0
787 3132 3133 0
3134 3120 783 0
3126 189 3120 0
3126 3120 3134 0
786 3126 3134 0
3135 3132 787 0
3134 783 3132 0
3134 3132 3135 0
786 3134 3135 0
3136 3135 787 0
3131 786 3135 0
3131 3135 3136 0
197 3131 3136 0
3138 3133 198 0
3137 787 3133 0
3137 3133 3138 0
789 3137 3138 0
3140 3136 787 0
3139 197 3136 0
3139 3136 3140 0
788 3139 3140 0
3141 3137 789 0
3140 787 3137 0
3140 3137 3141 0
788 3140 3141 0
3143 3141 789 0
3142 788 3141 0
3142 3141 3143 0
49 3142 3143 0
3145 3116 50 0
3144 781 3116 0
3144 3116 3145 0
791 3144 3145 0
3147 3113 781 0
3146 195 3113 0
3146 3113 3147 0
790 3146 3147 0
3148 3144 791 0
3147 781 3144 0
3147 3144 3148 0
790 3147 3148 0
3150 3148 791 0
3149 790 3148 0
3149 3148 3150 0
199 3149 3150 0
3152 3104 195 0
3151 778 3104 0
3151 3104 3152 0
792 3151 3152 0
3153 3101 778 0
3119 47 3101 0
3119 3101 3153 0
784 3119 3153 0
3154 3151 792 0
3153 778 3151 0
3153 3151 3154 0
784 3153 3154 0
3155 3154 792 0
3124 784 3154 0
3124 3154 3155 0
198 3124 3155 0
3157 3149 199 0
3156 790 3149 0
3156 3149 3157 0
793 3156 3157 0
3158 3146 790 0
3152 195 3146 0
3152 3146 3158 0
792 3152 3158 0
3159 3156 793 0
3158 790 3156 0
3158 3156 3159 0
792 3158 3159 0
3160 3159 793 0
3155 792 3159 0
3155 3159 3160 0
198 3155 3160 0
3162 3157 199 0
3161 793 3157 0
3161 3157 3162 0
794 3161 3162 0
3163 3160 793 0
3138 198 3160 0
3138 3160 3163 0
789 3138 3163 0
3164 3161 794 0
3163 793 3161 0
3163 3161 3164 0
789 3163 3164 0
3165 3164 794 0
3143 789 3164 0
3143 3164 3165 0
49 3143 3165 0
3167 3145 50 0
3166 791 3145 0
3166 3145 3167 0
796 3166 3167 0
3169 3150 791 0
3168 199 3150 0
3168 3150 3169 0
795 3168 3169 0
3170 3166 796 0
3169 791 3166 0
3169 3166 3170 0
795 3169 3170 0
3172 3170 796 0
3171 795 3170 0
3171 3170 3172 0
201 3171 3172 0
3174 3162 199 0
3173 794 3162 0
3173 3162 3174 0
798 3173 3174 0
3176 3165 794 0
3175 49 3165 0
3175 3165 3176 0
797 3175 3176 0
3177 3173 798 0
3176 794 3173 0
3176 3173 3177 0
797 3176 3177 0
3179 3177 798 0
3178 797 3177 0
3178 3177 3179 0
200 3178 3179 0
3181 3171 201 0
3180 795 3171 0
3180 3171 3181 0
799 3180 3181 0
3182 3168 795 0
3174 199 3168 0
3174 3168 3182 0
798 3174 3182 0
3183 3180 799 0
3182 795 3180 0
3182 3180 3183 0
798 3182 3183 0
3184 3183 799 0
3179 798 3183 0
3179 3183 3184 0
200 3179 3184 0
3186 3181 201 0
3185 799 3181 0
3185 3181 3186 0
801 3185 3186 0
3188 3184 799 0
3187 200 3184 0
3187 3184 3188 0
800 3187 3188 0
3189 3185 801 0
3188 799 3185 0
3188 3185 3189 0
800 3188 3189 0
3191 3189 801 0
3190 800 3189 0
3190 3189 3191 0
13 3190 3191 0
3193 3091 11 0
3192 775 3091 0
3192 3091 3193 0
803 3192 3193 0
3195 3088 775 0
3194 194 3088 0
3194 3088 3195 0
802 3194 3195 0
3196 3192 803 0
3195 775 3192 0
3195 3192 3196 0
802 3195 3196 0
3198 3196 803 0
3197 802 3196 0
3197 3196 3198 0
203 3197 3198 0
3200 3080 194 0
3199 772 3080 0
3199 3080 3200 0
805 3199 3200 0
3202 3077 772 0
3201 48 3077 0
3201 3077 3202 0
804 3201 3202 0
3203 3199 805 0
3202 772 3199 0
3202 3199 3203 0
804 3202 3203 0
3205 3203 805 0
3204 804 3203 0
3204 3203 3205 0
202 3204 3205 0
3207 3197 203 0
3206 802 3197 0
3206 3197 3207 0
806 3206 3207 0
3208 3194 802 0
3200 194 3194 0
3200 3194 3208 0
805 3200 3208 0
3209 3206 806 0
3208 802 3206 0
3208 3206 3209 0
805 3208 3209 0
3210 3209 806 0
3205 805 3209 0
3205 3209 3210 0
202 3205 3210 0
3212 3207 203 0
3211 806 3207 0
3211 3207 3212 0
808 3211 3212 0
3214 3210 806 0
3213 202 3210 0
3213 3210 3214 0
807 3213 3214 0
3215 3211 808 0
3214 806 3211 0
3214 3211 3215 0
807 3214 3215 0
3217 3215 808 0
3216 807 3215 0
3216 3215 3217 0
51 3216 3217 0
3219 3046 48 0
3218 764 3046 0
3218 3046 3219 0
810 3218 3219 0
3221 3043 764 0
3220 191 3043 0
3220 3043 3221 0
809 3220 3221 0
3222 3218 810 0
3221 764 3218 0
3221 3218 3222 0
809 3221 3222 0
3224 3222 810 0
3223 809 3222 0
3223 3222 3224 0
204 3223 3224 0
3226 3034 191 0
3225 761 3034 0
3225 3034 3226 0
811 3225 3226 0
3227 3031 761 0
3093 12 3031 0
3093 3031 3227 0
777 3093 3227 0
3228 3225 811 0
3227 761 3225 0
3227 3225 3228 0
777 3227 3228 0
3229 3228 811 0
3098 777 3228 0
3098 3228 3229 0
196 3098 3229 0
3231 3223 204 0
3230 809 3223 0
3230 3223 3231 0
812 3230 3231 0
3232 3220 809 0
3226 191 3220 0
3226 3220 3232 0
811 3226 3232 0
3233 3230 812 0
3232 809 3230 0
3232 3230 3233 0
811 3232 3233 0
3234 3233 812 0
3229 811 3233 0
3229 3233 3234 0
196 3229 3234 0
3236 3231 204 0
3235 812 3231 0
3235 3231 3236 0
813 3235 3236 0
3237 3234 812 0
3112 196 3234 0
3112 3234 3237 0
782 3112 3237 0
3238 3235 813 0
3237 812 3235 0
3237 3235 3238 0
782 3237 3238 0
3239 3238 813 0
3117 782 3238 0
3117 3238 3239 0
50 3117 3239 0
3241 3216 51 0
3240 807 3216 0
3240 3216 3241 0
815 3240 3241 0
3243 3213 807 0
3242 202 3213 0
3242 3213 3243 0
814 3242 3243 0
3244 3240 815 0
3243 807 3240 0
3243 3240 3244 0
814 3243 3244 0
3246 3244 815 0
3245 814 3244 0
3245 3244 3246 0
205 3245 3246 0
3248 3204 202 0
3247 804 3204 0
3247 3204 3248 0
816 3247 3248 0
3249 3201 804 0
3219 48 3201 0
3219 3201 3249 0
810 3219 3249 0
3250 3247 816 0
3249 804 3247 0
3249 3247 3250 0
810 3249 3250 0
3251 3250 816 0
3224 810 3250 0
3224 3250 3251 0
204 3224 3251 0
3253 3245 205 0
3252 814 3245 0
3252 3245 3253 0
817 3252 3253 0
3254 3242 814 0
3248 202 3242 0
3248 3242 3254 0
816 3248 3254 0
3255 3252 817 0
3254 814 3252 0
3254 3252 3255 0
816 3254 3255 0
3256 3255 817 0
3251 816 3255 0
3251 3255 3256 0
204 3251 3256 0
3258 3253 205 0
3257 817 3253 0
3257 3253 3258 0
818 3257 3258 0
3259 3256 817 0
3236 204 3256 0
3236 3256 3259 0
813 3236 3259 0
3260 3257 818 0
3259 817 3257 0
3259 3257 3260 0
813 3259 3260 0
3261 3260 818 0
3239 813 3260 0
3239 3260 3261 0
50 3239 3261 0
3263 3241 51 0
3262 815 3241 0
3262 3241 3263 0
820 3262 3263 0
3265 3246 815 0
3264 205 3246 0
3264 3246 3265 0
819 3264 3265 0
3266 3262 820 0
3265 815 3262 0
3265 3262 3266 0
819 3265 3266 0
3268 3266 820 0
3267 819 3266 0
3267 3266 3268 0
206 3267 3268 0
3270 3258 205 0
3269 818 3258 0
3269 3258 3270 0
821 3269 3270 0
3271 3261 818 0
3167 50 3261 0
3167 3261 3271 0
796 3167 3271 0
3272 3269 821 0
3271 818 3269 0
3271 3269 3272 0
796 3271 3272 0
3273 3272 821 0
3172 796 3272 0
3172 3272 3273 0
201 3172 3273 0
3275 3267 206 0
3274 819 3267 0
3274 3267 3275 0
822 3274 3275 0
3276 3264 819 0
3270 205 3264 0
3270 3264 3276 0
821 3270 3276 0
3277 3274 822 0
3276 819 3274 0
3276 3274 3277 0
821 3276 3277 0
3278 3277 822 0
3273 821 3277 0
3273 3277 3278 0
201 3273 3278 0
3280 3275 206 0
3279 822 3275 0
3279 3275 3280 0
823 3279 3280 0
3281 3278 822 0
3186 201 3278 0
3186 3278 3281 0
801 3186 3281 0
3282 3279 823 0
3281 822 3279 0
3281 3279 3282 0
801 3281 3282 0
3283 3282 823 0
3191 801 3282 0
3191 3282 3283 0
13 3191 3283 0
2316 3193 11 0
3284 803 3193 0
3284 3193 2316 0
582 3284 2316 0
3286 3198 803 0
3285 203 3198 0
3285 3198 3286 0
824 3285 3286 0
3287 3284 582 0
3286 803 3284 0
3286 3284 3287 0
824 3286 3287 0
2311 3287 582 0
3288 824 3287 0
3288 3287 2311 0
146 3288 2311 0
3290 3212 203 0
3289 808 3212 0
3289 3212 3290 0
826 3289 3290 0
3292 3217 808 0
3291 51 3217 0
3291 3217 3292 0
825 3291 3292 0
3293 3289 826 0
3292 808 3289 0
3292 3289 3293 0
825 3292 3293 0
3295 3293 826 0
3294 825 3293 0
3294 3293 3295 0
207 3294 3295 0
3297 3288 146 0
3296 824 3288 0
3296 3288 3297 0
827 3296 3297 0
3298 3285 824 0
3290 203 3285 0
3290 3285 3298 0
826 3290 3298 0
3299 3296 827 0
3298 824 3296 0
3298 3296 3299 0
826 3298 3299 0
3300 3299 827 0
3295 826 3299 0
3295 3299 3300 0
207 3295 3300 0
2297 3297 146 0
3301 827 3297 0
3301 3297 2297 0
577 3301 2297 0
3303 3300 827 0
3302 207 3300 0
3302 3300 3303 0
828 3302 3303 0
3304 3301 577 0
3303 827 3301 0
3303 3301 3304 0
828 3303 3304 0
2292 3304 577 0
3305 828 3304 0
3305 3304 2292 0
37 3305 2292 0
3307 3263 51 0
3306 820 3263 0
3306 3263 3307 0
830 3306 3307 0
3309 3268 820 0
3308 206 3268 0
3308 3268 3309 0
829 3308 3309 0
3310 3306 830 0
3309 820 3306 0
3309 3306 3310 0
829 3309 3310 0
3312 3310 830 0
3311 829 3310 0
3311 3310 3312 0
209 3311 3312 0
3314 3280 206 0
3313 823 3280 0
3313 3280 3314 0
832 3313 3314 0
3316 3283 823 0
3315 13 3283 0
3315 3283 3316 0
831 3315 3316 0
3317 3313 832 0
3316 823 3313 0
3316 3313 3317 0
831 3316 3317 0
3319 3317 832 0
3318 831 3317 0
3318 3317 3319 0
208 3318 3319 0
3321 3311 209 0
3320 829 3311 0
3320 3311 3321 0
833 3320 3321 0
3322 3308 829 0
3314 206 3308 0
3314 3308 3322 0
832 3314 3322 0
3323 3320 833 0
3322 829 3320 0
3322 3320 3323 0
832 3322 3323 0
3324 3323 833 0
3319 832 3323 0
3319 3323 3324 0
208 3319 3324 0
3326 3321 209 0
3325 833 3321 0
3325 3321 3326 0
835 3325 3326 0
3328 3324 833 0
3327 208 3324 0
3327 3324 3328 0
834 3327 3328 0
3329 3325 835 0
3328 833 3325 0
3328 3325 3329 0
834 3328 3329 0
3331 3329 835 0
3330 834 3329 0
3330 3329 3331 0
52 3330 3331 0
3333 3305 37 0
3332 828 3305 0
3332 3305 3333 0
837 3332 3333 0
3335 3302 828 0
3334 207 3302 0
3334 3302 3335 0
836 3334 3335 0
3336 3332 837 0
3335 828 3332 0
3335 3332 3336 0
836 3335 3336 0
3338 3336 837 0
3337 836 3336 0
3337 3336 3338 0
210 3337 3338 0
3340 3294 207 0
3339 825 3294 0
3339 3294 3340 0
838 3339 3340 0
3341 3291 825 0
3307 51 3291 0
3307 3291 3341 0
830 3307 3341 0
3342 3339 838 0
3341 825 3339 0
3341 3339 3342 0
830 3341 3342 0
3343 3342 838 0
3312 830 3342 0
3312 3342 3343 0
209 3312 3343 0
3345 3337 210 0
3344 836 3337 0
3344 3337 3345 0
839 3344 3345 0
3346 3334 836 0
3340 207 3334 0
3340 3334 3346 0
838 3340 3346 0
3347 3344 839 0
3346 836 3344 0
3346 3344 3347 0
838 3346 3347 0
3348 3347 839 0
3343 838 3347 0
3343 3347 3348 0
209 3343 3348 0
3350 3345 210 0
3349 839 3345 0
3349 3345 3350 0
840 3349 3350 0
3351 3348 839 0
3326 209 3348 0
3326 3348 3351 0
835 3326 3351 0
3352 3349 840 0
3351 839 3349 0
3351 3349 3352 0
835 3351 3352 0
3353 3352 840 0
3331 835 3352 0
3331 3352 3353 0
52 3331 3353 0
2242 3333 37 0
3354 837 3333 0
3354 3333 2242 0
563 3354 2242 0
3356 3338 837 0
3355 210 3338 0
3355 3338 3356 0
841 3355 3356 0
3357 3354 563 0
3356 837 3354 0
3356 3354 3357 0
841 3356 3357 0
2237 3357 563 0
3358 841 3357 0
3358 3357 2237 0
141 3358 2237 0
3360 3350 210 0
3359 840 3350 0
3359 3350 3360 0
843 3359 3360 0
3362 3353 840 0
3361 52 3353 0
3361 3353 3362 0
842 3361 3362 0
3363 3359 843 0
3362 840 3359 0
3362 3359 3363 0
842 3362 3363 0
3365 3363 843 0
3364 842 3363 0
3364 3363 3365 0
211 3364 3365 0
3367 3358 141 0
3366 841 3358 0
3366 3358 3367 0
844 3366 3367 0
3368 3355 841 0
3360 210 3355 0
3360 3355 3368 0
843 3360 3368 0
3369 3366 844 0
3368 841 3366 0
3368 3366 3369 0
843 3368 3369 0
3370 3369 844 0
3365 843 3369 0
3365 3369 3370 0
211 3365 3370 0
2223 3367 141 0
3371 844 3367 0
3371 3367 2223 0
558 3371 2223 0
3373 3370 844 0
3372 211 3370 0
3372 3370 3373 0
845 3372 3373 0
3374 3371 558 0
3373 844 3371 0
3373 3371 3374 0
845 3373 3374 0
2218 3374 558 0
3375 845 3374 0
3375 3374 2218 0
0 3375 2218 0
3377 3375 0 0
3376 845 3375 0
3376 3375 3377 0
847 3376 3377 0
3379 3372 845 0
3378 211 3372 0
3378 3372 3379 0
846 3378 3379 0
3380 3376 847 0
3379 845 3376 0
3379 3376 3380 0
846 3379 3380 0
3382 3380 847 0
3381 846 3380 0
3381 3380 3382 0
213 3381 3382 0
3384 3364 211 0
3383 842 3364 0
3383 3364 3384 0
849 3383 3384 0
3386 3361 842 0
3385 52 3361 0
3385 3361 3386 0
848 3385 3386 0
3387 3383 849 0
3386 842 3383 0
3386 3383 3387 0
848 3386 3387 0
3389 3387 849 0
3388 848 3387 0
3388 3387 3389 0
212 3388 3389 0
3391 3381 213 0
3390 846 3381 0
3390 3381 3391 0
850 3390 3391 0
3392 3378 846 0
3384 211 3378 0
3384 3378 3392 0
849 3384 3392 0
3393 3390 850 0
3392 846 3390 0
3392 3390 3393 0
849 3392 3393 0
3394 3393 850 0
3389 849 3393 0
3389 3393 3394 0
212 3389 3394 0
3396 3391 213 0
3395 850 3391 0
3395 3391 3396 0
852 3395 3396 0
3398 3394 850 0
3397 212 3394 0
3397 3394 3398 0
851 3397 3398 0
3399 3395 852 0
3398 850 3395 0
3398 3395 3399 0
851 3398 3399 0
3401 3399 852 0
3400 851 3399 0
3400 3399 3401 0
54 3400 3401 0
3403 3330 52 0
3402 834 3330 0
3402 3330 3403 0
854 3402 3403 0
3405 3327 834 0
3404 208 3327 0
3404 3327 3405 0
853 3404 3405 0
3406 3402 854 0
3405 834 3402 0
3405 3402 3406 0
853 3405 3406 0
3408 3406 854 0
3407 853 3406 0
3407 3406 3408 0
215 3407 3408 0
3410 3318 208 0
3409 831 3318 0
3409 3318 3410 0
856 3409 3410 0
3412 3315 831 0
3411 13 3315 0
3411 3315 3412 0
855 3411 3412 0
3413 3409 856 0
3412 831 3409 0
3412 3409 3413 0
855 3412 3413 0
3415 3413 856 0
3414 855 3413 0
3414 3413 3415 0
214 3414 3415 0
3417 3407 215 0
3416 853 3407 0
3416 3407 3417 0
857 3416 3417 0
3418 3404 853 0
3410 208 3404 0
3410 3404 3418 0
856 3410 3418 0
3419 3416 857 0
3418 853 3416 0
3418 3416 3419 0
856 3418 3419 0
3420 3419 857 0
3415 856 3419 0
3415 3419 3420 0
214 3415 3420 0
3422 3417 215 0
3421 857 3417 0
3421 3417 3422 0
859 3421 3422 0
3424 3420 857 0
3423 214 3420 0
3423 3420 3424 0
858 3423 3424 0
3425 3421 859 0
3424 857 3421 0
3424 3421 3425 0
858 3424 3425 0
3427 3425 859 0
3426 858 3425 0
3426 3425 3427 0
53 3426 3427 0
3429 3400 54 0
3428 851 3400 0
3428 3400 3429 0
861 3428 3429 0
3431 3397 851 0
3430 212 3397 0
3430 3397 3431 0
860 3430 3431 0
3432 3428 861 0
3431 851 3428 0
3431 3428 3432 0
860 3431 3432 0
3434 3432 861 0
3433 860 3432 0
3433 3432 3434 0
216 3433 3434 0
3436 3388 212 0
3435 848 3388 0
3435 3388 3436 0
862 3435 3436 0
3437 3385 848 0
3403 52 3385 0
3403 3385 3437 0
854 3403 3437 0
3438 3435 862 0
3437 848 3435 0
3437 3435 3438 0
854 3437 3438 0
3439 3438 862 0
3408 854 3438 0
3408 3438 3439 0
215 3408 3439 0
3441 3433 216 0
3440 860 3433 0
3440 3433 3441 0
863 3440 3441 0
3442 3430 860 0
3436 212 3430 0
3436 3430 3442 0
862 3436 3442 0
3443 3440 863 0
3442 860 3440 0
3442 3440 3443 0
862 3442 3443 0
3444 3443 863 0
3439 862 3443 0
3439 3443 3444 0
215 3439 3444 0
3446 3441 216 0
3445 863 3441 0
3445 3441 3446 0
864 3445 3446 0
3447 3444 863 0
3422 215 3444 0
3422 3444 3447 0
859 3422 3447 0
3448 3445 864 0
3447 863 3445 0
3447 3445 3448 0
859 3447 3448 0
3449 3448 864 0
3427 859 3448 0
3427 3448 3449 0
53 3427 3449 0
3451 3429 54 0
3450 861 3429 0
3450 3429 3451 0
866 3450 3451 0
3453 3434 861 0
3452 216 3434 0
3452 3434 3453 0
865 3452 3453 0
3454 3450 866 0
3453 861 3450 0
3453 3450 3454 0
865 3453 3454 0
3456 3454 866 0
3455 865 3454 0
3455 3454 3456 0
218 3455 3456 0
3458 3446 216 0
3457 864 3446 0
3457 3446 3458 0
868 3457 3458 0
3460 3449 864 0
3459 53 3449 0
3459 3449 3460 0
867 3459 3460 0
3461 3457 868 0
3460 864 3457 0
3460 3457 3461 0
867 3460 3461 0
3463 3461 868 0
3462 867 3461 0
3462 3461 3463 0
217 3462 3463 0
3465 3455 218 0
3464 865 3455 0
3464 3455 3465 0
869 3464 3465 0
3466 3452 865 0
3458 216 3452 0
3458 3452 3466 0
868 3458 3466 0
3467 3464 869 0
3466 865 3464 0
3466 3464 3467 0
868 3466 3467 0
3468 3467 869 0
3463 868 3467 0
3463 3467 3468 0
217 3463 3468 0
3470 3465 218 0
3469 869 3465 0
3469 3465 3470 0
871 3469 3470 0
3472 3468 869 0
3471 217 3468 0
3471 3468 3472 0
870 3471 3472 0
3473 3469 871 0
3472 869 3469 0
3472 3469 3473 0
870 3472 3473 0
3475 3473 871 0
3474 870 3473 0
3474 3473 3475 0
14 3474 3475 0
3477 3190 13 0
3476 800 3190 0
3476 3190 3477 0
873 3476 3477 0
3479 3187 800 0
3478 200 3187 0
3478 3187 3479 0
872 3478 3479 0
3480 3476 873 0
3479 800 3476 0
3479 3476 3480 0
872 3479 3480 0
3482 3480 873 0
3481 872 3480 0
3481 3480 3482 0
220 3481 3482 0
3484 3178 200 0
3483 797 3178 0
3483 3178 3484 0
875 3483 3484 0
3486 3175 797 0
3485 49 3175 0
3485 3175 3486 0
874 3485 3486 0
3487 3483 875 0
3486 797 3483 0
3486 3483 3487 0
874 3486 3487 0
3489 3487 875 0
3488 874 3487 0
3488 3487 3489 0
219 3488 3489 0
3491 3481 220 0
3490 872 3481 0
3490 3481 3491 0
876 3490 3491 0
3492 3478 872 0
3484 200 3478 0
3484 3478 3492 0
875 3484 3492 0
3493 3490 876 0
3492 872 3490 0
3492 3490 3493 0
875 3492 3493 0
3494 3493 876 0
3489 875 3493 0
3489 3493 3494 0
219 3489 3494 0
3496 3491 220 0
3495 876 3491 0
3495 3491 3496 0
878 3495 3496 0
3498 3494 876 0
3497 219 3494 0
3497 3494 3498 0
877 3497 3498 0
3499 3495 878 0
3498 876 3495 0
3498 3495 3499 0
877 3498 3499 0
3501 3499 878 0
3500 877 3499 0
3500 3499 3501 0
56 3500 3501 0
3503 3142 49 0
3502 788 3142 0
3502 3142 3503 0
880 3502 3503 0
3505 3139 788 0
3504 197 3139 0
3504 3139 3505 0
879 3504 3505 0
3506 3502 880 0
3505 788 3502 0
3505 3502 3506 0
879 3505 3506 0
3508 3506 880 0
3507 879 3506 0
3507 3506 3508 0
222 3507 3508 0
3510 3130 197 0
3509 785 3130 0
3509 3130 3510 0
882 3509 3510 0
3512 3127 785 0
3511 2 3127 0
3511 3127 3512 0
881 3511 3512 0
3513 3509 882 0
3512 785 3509 0
3512 3509 3513 0
881 3512 3513 0
3515 3513 882 0
3514 881 3513 0
3514 3513 3515 0
221 3514 3515 0
3517 3507 222 0
3516 879 3507 0
3516 3507 3517 0
883 3516 3517 0
3518 3504 879 0
3510 197 3504 0
3510 3504 3518 0
882 3510 3518 0
3519 3516 883 0
3518 879 3516 0
3518 3516 3519 0
882 3518 3519 0
3520 3519 883 0
3515 882 3519 0
3515 3519 3520 0
221 3515 3520 0
3522 3517 222 0
3521 883 3517 0
3521 3517 3522 0
885 3521 3522 0
3524 3520 883 0
3523 221 3520 0
3523 3520 3524 0
884 3523 3524 0
3525 3521 885 0
3524 883 3521 0
3524 3521 3525 0
884 3524 3525 0
3527 3525 885 0
3526 884 3525 0
3526 3525 3527 0
55 3526 3527 0
3529 3500 56 0
3528 877 3500 0
3528 3500 3529 0
887 3528 3529 0
3531 3497 877 0
3530 219 3497 0
3530 3497 3531 0
886 3530 3531 0
3532 3528 887 0
3531 877 3528 0
3531 3528 3532 0
886 3531 3532 0
