#!ascii - generated by CreateLabelFiles project 
10943 21346
-31.4211 72.7192 46.6962 0
-32.0147 77.112 43.604 0
-29.2493 83.2938 43.7802 0
-28.3501 90.4442 31.6211 0
-30.7707 84.219 43.5926 0
-31.2573 87.8929 37.8203 0
-30.0122 93.7342 33.3584 0
-31.2514 95.0911 35.447 0
-23.4965 49.5039 53.371 0
-24.8391 57.134 52.9487 0
-23.4962 38.9229 50.2082 0
-23.3984 42.1398 49.0425 0
-28.0344 52.5814 53.1887 0
-31.48 54.4189 53.2285 0
-30.6938 58.5251 48.2911 0
-22.9891 35.2355 48.5494 0
-23.1607 38.4951 51.9952 0
-31.6703 17.7636 46.7121 0
-27.6244 25.7931 47.9656 0
-26.408 32.4845 46.9318 0
-28.158 30.9782 42.5496 0
-30.8217 36.7849 51.4972 0
-29.6554 48.8942 56.5091 0
-32.6472 52.4872 51.0534 0
-28.0225 41.0351 54.2685 0
-29.836 43.4457 54.2664 0
-30.7939 43.0926 51.287 0
-30.0825 51.1755 48.4722 0
-32.4902 56.6994 47.2828 0
-30.7931 42.1542 48.4231 0
-28.2869 45.8553 49.1938 0
-27.2201 49.7224 46.2978 0
-31.7148 51.3898 43.3103 0
-35.5158 89.7255 38.5729 0
-33.7824 93.8982 34.1477 0
-32.0826 80.0721 45.8211 0
-33.1272 85.3364 43.5682 0
-34.8063 83.5483 41.8618 0
-34.5058 78.2401 43.3599 0
-34.3764 82.8169 38.9609 0
-30.3461 70.3155 49.5249 0
-33.0373 74.7451 47.348 0
-27.0904 63.8294 49.4377 0
-29.52 65.259 48.3476 0
-32.3856 64.6444 49.2306 0
-34.6876 74.5909 46.4944 0
-35.0807 71.4777 42.4284 0
-33.897 76.2493 47.7988 0
-33.9513 70.2658 48.0229 0
-32.0333 63.4842 47.2578 0
-31.6734 65.0702 41.6729 0
-33.8595 69.4294 39.662 0
-32.4242 60.7325 44.3573 0
-31.4272 57.6429 41.7892 0
-32.2404 56.1245 39.0175 0
-33.4983 92.9684 31.1306 0
-32.5513 83.1434 36.3103 0
-36.4264 89.0887 33.4743 0
-33.2231 91.3252 28.1625 0
-34.0004 89.4152 25.6639 0
-32.2792 68.4956 35.6937 0
-34.2516 77.0854 36.1267 0
-32.299 61.8837 35.2898 0
-34.4697 68.4307 32.0113 0
-35.633 84.1011 28.146 0
-30.9956 82.7506 32.8301 0
-29.7747 35.0469 42.1551 0
-31.608 21.9074 41.0288 0
-31.7706 30.3299 40.1299 0
-24.686 17.4986 44.9571 0
-29.3145 17.7095 42.2326 0
-28.9828 17.2371 37.7103 0
-31.5899 105.241 -10.0501 0
-29.4171 102.012 -10.9466 0
-29.9227 101.425 -6.45896 0
-27.7614 99.7702 -8.21208 0
-32.9472 94.1947 18.6014 0
-28.0419 101.361 -1.29534 0
-31.4692 105.73 -5.39633 0
-33.262 102.314 -6.30139 0
-33.7161 108.39 -8.98006 0
-31.3647 107.518 -7.36687 0
-32.256 109.789 -5.09374 0
-35.3834 111.617 -3.03842 0
-36.6354 109.624 -1.22637 0
-33.4826 104.511 -0.864224 0
-29.2924 106.664 1.25052 0
-35.6759 103.44 -4.86357 0
-36.4349 106.871 -0.794668 0
-34.2184 110.379 0.298777 0
-29.3296 110.538 3.28328 0
-30.3708 108.832 4.73145 0
-30.3672 112.709 1.93965 0
-29.0171 111.964 2.53759 0
-30.6732 112.155 5.23044 0
-31.2241 113.636 6.1422 0
-34.8881 111.174 6.30643 0
-35.0341 97.6694 16.2919 0
-33.4097 94.4582 20.0924 0
-33.9982 94.4289 10.4619 0
-35.4193 96.4426 12.5637 0
-36.1613 98.9843 13.8316 0
-32.5998 101.635 14.1577 0
-36.7498 100.357 15.3489 0
-34.2771 101.148 5.90602 0
-29.983 102.46 12.0463 0
-30.2291 105.494 13.718 0
-30.5059 96.894 9.6075 0
-31.4446 102.828 8.53859 0
-34.2298 106.127 5.74512 0
-33.0834 107.075 11.6731 0
-31.5661 107.007 14.9998 0
-34.986 108.039 7.53912 0
-36.6104 108.577 9.14285 0
-36.4949 109.722 9.94096 0
-32.616 96.1798 21.4857 0
-30.8193 94.9013 23.1166 0
-35.9808 99.7695 17.9264 0
-35.3381 96.8376 20.2877 0
-32.8144 97.7541 23.2256 0
-33.9091 98.6473 24.4011 0
-33.289 95.6678 26.0996 0
-32.2409 108.255 16.1741 0
-35.8133 104.281 15.4699 0
-35.1516 110.097 9.97886 0
-33.017 111.556 14.7039 0
-32.9735 108.956 17.8979 0
-34.3918 107.8 19.3027 0
-34.5492 102.402 18.3064 0
-35.7454 99.404 23.169 0
-34.5686 99.447 25.7219 0
-37.1053 99.046 19.4511 0
-36.9263 100.33 20.811 0
-36.6178 102.07 22.3749 0
-35.1479 100.616 27.3096 0
-35.8817 97.5864 27.7406 0
-35.686 103.527 23.2263 0
-36.7358 102.819 25.7023 0
-35.993 101.875 28.3787 0
-35.6861 103.964 28.3261 0
-35.9687 99.227 30.714 0
-36.6921 109.26 -11.0232 0
-33.6076 105.981 25.848 0
-33.8555 104.567 27.3367 0
-32.5254 102.973 21.3254 0
-33.2484 103.949 24.0824 0
-31.2659 103.751 23.8093 0
-29.8385 102.444 20.4985 0
-29.8446 103.023 22.5145 0
-32.5705 112.336 17.1803 0
-32.9092 107.296 19.4853 0
-32.6483 111.169 8.19755 0
-33.9469 110.255 11.4986 0
-32.6245 111.674 12.3859 0
-30.5245 109.378 10.4327 0
-31.1516 113.056 13.4963 0
-29.9414 104.563 17.932 0
-28.4265 103.846 18.3543 0
-31.4691 106.184 18.6928 0
-30.2853 110.558 18.9978 0
-30.2971 112.333 14.9896 0
-29.0308 114.816 5.58863 0
-30.8143 113.757 7.70303 0
-28.1634 114.022 3.3131 0
-34.1455 113.174 -5.65805 0
-37.1035 113.409 0.168234 0
-34.9427 111.831 -8.68482 0
-29.1636 111.104 7.17497 0
-29.9546 112.63 7.54364 0
-31.9798 106.253 27.4542 0
-33.7318 100.954 30.0352 0
-28.4285 101.53 21.5249 0
-29.932 104.026 25.0969 0
-30.0935 104.959 26.7393 0
-31.0454 102.856 26.4617 0
-25.2727 15.2268 59.6062 0
-27.2806 14.3279 56.9537 0
-25.1746 14.0054 52.5948 0
-26.9771 15.8615 53.0348 0
-24.5504 17.0649 49.9465 0
-24.8853 18.296 48.3586 0
-26.8583 17.7101 49.735 0
-22.8242 59.153 52.8263 0
-20.0326 52.1667 54.7405 0
-17.255 45.5509 51.6675 0
-13.2181 43.5925 48.0295 0
-18.6712 47.4995 55.8904 0
-21.1064 52.7262 56.5691 0
-13.474 44.4569 52.9093 0
-15.6395 45.8108 55.4626 0
-16.1297 44.381 55.3394 0
-14.7838 41.7486 52.5068 0
-18.1486 43.8287 53.0888 0
-13.8827 39.0372 49.3725 0
-12.6073 42.8555 50.9504 0
-16.6394 34.7638 48.4543 0
-15.0007 34.5264 50.4915 0
-15.8195 30.3147 50.3656 0
-14.1061 34.6082 52.7367 0
-12.5326 39.8431 53.8267 0
-14.524 38.9258 53.0806 0
-11.923 41.7244 53.2485 0
-11.8212 37.2392 54.5837 0
-13.1825 34.1985 55.2054 0
-15.2032 37.4371 55.1104 0
-17.4146 38.835 52.0055 0
-15.4177 32.3038 54.2331 0
-14.4385 34.717 56.0132 0
-16.1691 35.9157 56.4074 0
-17.4216 33.9089 57.1969 0
-18.5433 37.0417 54.4593 0
-19.4652 22.5798 55.7719 0
-23.1454 17.2131 57.5641 0
-17.9755 31.4006 55.8937 0
-19.1467 32.5902 56.7394 0
-17.1782 29.9774 52.4068 0
-17.3467 30.8532 54.1373 0
-19.7028 30.3148 54.0441 0
-21.3459 28.9799 52.736 0
-22.6164 28.9732 54.6777 0
-18.2562 27.9417 47.7961 0
-17.2486 28.7219 50.447 0
-20.806 27.8506 51.2696 0
-23.3307 26.0387 53.7479 0
-18.9661 28.2024 50.6185 0
-21.6732 26.4447 49.841 0
-22.4172 23.081 55.2147 0
-24.1675 22.8506 53.8994 0
-20.926 22.9731 55.9406 0
-23.8026 18.5531 54.1637 0
-24.8274 18.1534 58.1972 0
-21.5566 31.7938 56.9157 0
-20.0077 34.2515 54.1281 0
-25.3675 25.8961 57.0977 0
-24.1899 29.2594 56.6952 0
-25.8009 30.0303 57.1883 0
-29.4306 27.909 54.9011 0
-25.6898 30.6485 53.8774 0
-26.7058 19.8991 55.4224 0
-26.3486 22.9953 53.4762 0
-26.3833 17.2519 57.8968 0
-27.6603 17.1571 57.6699 0
-28.6857 16.8986 56.3068 0
-30.0359 23.8282 53.9151 0
-31.8584 23.0113 53.1788 0
-28.0614 23.7009 53.6674 0
-29.6363 20.3749 55.1448 0
-29.6164 16.8547 54.8115 0
-32.3232 19.2542 52.0074 0
-32.6003 22.965 51.5549 0
-30.198 17.2301 53.1063 0
-30.1927 17.2379 51.0606 0
-29.9668 16.8536 49.2708 0
-22.5153 64.3348 50.7384 0
-24.1435 59.8626 53.6748 0
-23.6843 62.7692 52.6835 0
-24.3639 65.0608 51.5129 0
-25.7826 65.6645 50.5819 0
-25.748 68.0302 50.3147 0
-30.234 72.3752 43.7286 0
-26.4195 68.8612 47.7124 0
-27.8312 70.1554 48.4983 0
-31.2763 73.5284 44.5188 0
-31.9698 76.0552 42.7049 0
-29.398 70.8636 48.606 0
-30.1884 71.849 46.5427 0
-32.4696 74.2432 45.0404 0
-32.8983 75.3122 45.5227 0
-32.1513 77.8305 44.4837 0
-28.0512 85.8381 42.3601 0
-28.7868 83.0874 43.7234 0
-29.0507 86.3838 42.0924 0
-31.0405 79.5749 42.8982 0
-30.5716 80.2375 43.8429 0
-30.4523 80.7864 44.4554 0
-30.0382 86.5961 34.9341 0
-27.5692 98.0615 27.5033 0
-29.9359 86.2001 41.4533 0
-30.4256 86.7755 38.0297 0
-30.649 81.3856 44.8888 0
-29.8046 83.3227 43.6722 0
-31.0816 86.436 41.5131 0
-32.4106 87.19 41.7401 0
-32.4797 88.2319 38.3844 0
-29.29 92.1968 32.224 0
-29.3706 98.1324 28.5688 0
-31.1808 87.7893 34.905 0
-31.7939 89.6303 35.1638 0
-32.0514 91.1499 35.8319 0
-30.6942 97.8566 30.513 0
-32.5386 91.9573 36.6309 0
-30.1917 94.7906 34.7153 0
-31.6484 98.1804 31.9062 0
-32.1732 98.276 32.7718 0
-22.5109 52.8864 55.6614 0
-23.3843 57.0073 55.0391 0
-20.2558 44.1104 51.4598 0
-21.4137 47.6658 54.5416 0
-23.4778 53.7871 53.3207 0
-25.5014 54.6345 51.0937 0
-25.9744 57.4412 50.6431 0
-20.2155 39.0445 49.8454 0
-19.7154 41.1432 49.2248 0
-20.9982 38.764 52.1644 0
-20.6781 38.4708 50.7961 0
-23.4763 39.9197 49.0367 0
-25.9891 41.8053 50.9758 0
-25.5375 44.0151 52.0217 0
-25.8783 51.3491 53.1419 0
-27.9444 54.9865 50.0397 0
-22.9568 45.4251 51.3859 0
-25.6481 47.0905 53.5779 0
-27.784 49.7405 55.3286 0
-29.8155 55.6614 49.805 0
-29.1582 58.199 47.1038 0
-28.864 51.2973 56.2752 0
-30.0065 53.4108 53.0615 0
-31.3713 56.5097 50.3092 0
-32.7824 56.7927 50.8709 0
-32.0892 59.0608 49.6076 0
-21.1254 35.7114 51.72 0
-20.6254 37.6128 52.3782 0
-24.3238 31.202 50.5761 0
-21.7001 34.3233 50.6898 0
-22.6443 36.8387 50.232 0
-25.4041 36.1978 50.0256 0
-25.8657 37.3397 52.2818 0
-31.8896 23.2933 49.8547 0
-27.9703 26.8941 50.2572 0
-29.2503 16.8984 47.7237 0
-32.8295 18.4082 48.5107 0
-32.0957 22.9804 47.877 0
-31.6659 21.2363 46.1381 0
-28.6042 25.6864 45.8422 0
-25.4232 34.9176 47.5484 0
-27.6296 34.8675 50.3351 0
-23.9557 30.307 48.2887 0
-24.971 28.6884 45.9967 0
-26.2441 27.8998 44.2022 0
-29.322 34.2528 49.5562 0
-30.0394 36.6872 53.0431 0
-28.7529 27.6517 42.3069 0
-27.2351 30.6605 45.234 0
-29.6366 33.4095 48.0081 0
-29.8431 32.7529 45.6374 0
-30.558 36.7534 50.2264 0
-32.627 53.6831 52.3539 0
-33.1497 55.7482 50.0905 0
-28.1595 47.4393 57.3386 0
-30.737 51.7444 55.4306 0
-31.3891 51.3595 53.7952 0
-29.2233 49.0777 54.3278 0
-30.2696 50.957 52.119 0
-26.4203 40.4878 51.2008 0
-26.8343 43.0014 54.6471 0
-23.59 39.0863 51.4999 0
-26.4603 39.056 52.0602 0
-28.656 38.8805 54.4402 0
-28.7647 46.3749 55.9435 0
-28.0366 45.8727 54.0808 0
-28.3505 44.667 57.1205 0
-29.5296 43.1037 56.0351 0
-29.9957 39.6626 54.2508 0
-29.9921 43.11 52.8485 0
-28.5768 45.3584 52.1307 0
-30.1448 40.0616 52.7692 0
-30.794 40.2625 51.4401 0
-30.8754 39.9031 50.2499 0
-32.769 54.2356 48.9028 0
-33.2354 57.9859 48.4305 0
-28.9907 50.1683 50.5746 0
-31.4869 51.7676 49.6326 0
-32.3985 52.4182 47.5681 0
-31.0084 52.0086 46.7559 0
-32.3003 54.7065 46.1309 0
-29.4279 44.4336 50.3694 0
-27.644 47.2618 50.8025 0
-29.5596 39.4234 49.3025 0
-31.0377 42.4886 49.6287 0
-30.2177 43.771 48.8887 0
-30.8211 43.5995 47.6589 0
-28.8215 44.6524 48.0082 0
-28.3131 50.9618 47.5167 0
-29.4263 52.2969 45.9048 0
-27.8777 48.9593 49.0279 0
-27.2083 47.532 47.9458 0
-27.3073 45.971 46.922 0
-28.7788 52.0536 44.6535 0
-31.7942 52.0882 44.8171 0
-25.9227 48.8911 45.5233 0
-28.3041 50.9927 43.5347 0
-32.9597 94.8207 35.2015 0
-33.4741 96.5619 33.0734 0
-34.4135 89.5567 38.9935 0
-33.7176 92.3582 37.0895 0
-35.3012 92.4097 36.5374 0
-36.268 89.3015 37.7781 0
-35.9564 91.9878 35.2032 0
-31.895 84.6725 43.3746 0
-33.7516 87.5821 41.8925 0
-31.7532 79.4031 45.7738 0
-31.2246 81.7538 44.6782 0
-32.0179 82.3294 44.4157 0
-32.9121 80.2795 45.5462 0
-33.1018 82.6286 44.4855 0
-35.8136 86.5043 40.4979 0
-36.2453 86.2084 39.35 0
-35.0526 87.4647 41.6679 0
-34.2087 84.5673 43.1783 0
-33.6616 81.8373 44.0411 0
-34.6917 83.0597 40.4565 0
-36.0466 86.0817 37.9565 0
-34.4459 79.388 44.9308 0
-33.534 80.749 42.7332 0
-33.6275 79.9804 41.1126 0
-34.5481 77.225 41.6161 0
-33.9244 80.0719 39.6493 0
-32.5366 73.6708 46.9391 0
-32.9066 76.4717 46.197 0
-28.9888 69.5403 50.1908 0
-30.8794 71.4763 48.2928 0
-32.1733 72.4966 48.3314 0
-31.6232 71.5186 49.8141 0
-32.9263 73.3607 48.6525 0
-25.9551 62.8205 50.5009 0
-27.1235 66.6169 50.3107 0
-25.5818 59.7631 52.7091 0
-25.8596 59.9798 50.5143 0
-27.1867 60.4423 48.6994 0
-30.0477 68.0327 49.7364 0
-30.9888 68.4688 49.3412 0
-28.8064 67.513 50.839 0
-28.3 65.0908 48.6265 0
-28.4033 61.1308 47.5407 0
-31.065 65.004 48.474 0
-31.9697 68.0388 49.6804 0
-29.636 61.421 48.1897 0
-31.1657 61.456 48.9643 0
-32.6929 61.5398 49.5122 0
-35.0514 74.7808 43.1331 0
-34.3817 73.7237 41.2574 0
-34.5447 77.9285 46.6687 0
-35.0231 76.2186 45.1858 0
-34.5121 73.2869 44.4982 0
-34.8873 70.9604 45.6418 0
-35.0177 69.0671 43.8983 0
-33.1049 78.3589 46.9941 0
-33.755 78.5461 46.8842 0
-32.8376 77.5497 46.8005 0
-33.4021 75.7633 47.6963 0
-33.6068 73.9543 48.7444 0
-34.5846 72.6392 47.5704 0
-34.2021 68.8732 46.5633 0
-34.5315 76.0393 47.7466 0
-34.3412 74.0621 48.5974 0
-33.0977 71.4897 49.2204 0
-33.2507 66.6614 47.6412 0
-32.2804 65.5071 46.0781 0
-33.3891 67.7333 48.8585 0
-33.044 64.4227 48.7534 0
-33.2694 61.2808 48.3456 0
-35.0934 70.0866 40.8247 0
-34.9138 73.1116 39.5975 0
-32.9911 66.2361 43.3026 0
-34.7109 67.9434 42.0595 0
-33.3697 66.8768 40.3907 0
-30.3158 63.8239 40.5013 0
-31.6898 65.9484 38.8945 0
-32.7376 62.3393 45.5665 0
-31.4004 64.5661 44.4434 0
-33.68 60.2223 46.9808 0
-33.5353 59.162 45.5727 0
-32.0704 57.4792 44.4345 0
-30.8017 61.7531 41.7697 0
-31.5965 60.1219 40.5947 0
-31.1922 63.0566 43.1225 0
-32.0446 59.4303 42.8731 0
-31.3188 54.7696 43.4672 0
-31.1595 56.2267 40.4805 0
-31.5288 59.184 38.9394 0
-32.4186 53.1065 42.6871 0
-32.3558 52.2958 41.3147 0
-33.2853 96.0249 31.9774 0
-35.8582 91.6536 33.3575 0
-33.7236 93.8073 32.5363 0
-33.9817 95.3268 30.3484 0
-35.373 94.2492 28.4618 0
-35.5033 85.9587 36.6298 0
-36.0893 89.4386 35.0264 0
-33.615 79.8499 38.3024 0
-33.963 82.8646 37.5687 0
-34.5974 85.6625 35.3267 0
-33.6525 85.5597 34.0338 0
-36.7287 88.021 32.0054 0
-33.3722 91.9996 29.9006 0
-35.2411 93.3757 26.8762 0
-35.635 91.2789 31.8365 0
-35.2436 89.8976 31.0822 0
-35.6799 88.4203 30.0922 0
-34.5045 92.9594 26.0688 0
-35.5415 86.9789 29.0222 0
-33.5261 90.18 27.0087 0
-33.296 92.7579 25.6139 0
-31.3518 92.4489 25.4364 0
-34.3814 72.6643 38.0666 0
-34.3115 76.3682 38.1617 0
-30.8297 64.8506 37.6623 0
-32.1092 69.2968 38.235 0
-33.3608 72.8988 35.9594 0
-34.0073 71.7055 33.7609 0
-34.1214 76.7657 33.8191 0
-32.0009 59.0123 36.9472 0
-31.0067 61.7877 37.4516 0
-32.2858 56.7355 36.458 0
-32.5372 59.8748 34.3859 0
-33.9812 67.8166 33.6055 0
-35.2068 71.8429 31.6775 0
-31.9791 64.9327 35.8139 0
-33.3198 65.0961 33.8501 0
-33.1579 89.4902 25.0402 0
-29.6524 91.8071 24.3988 0
-34.9465 85.2983 30.2885 0
-35.4597 86.1466 27.3588 0
-34.5496 85.5223 25.6317 0
-31.718 83.0956 34.7982 0
-32.7448 85.2693 32.4621 0
-32.861 79.5088 36.5015 0
-32.6051 79.5082 34.7838 0
-32.8276 78.6683 32.7264 0
-33.0844 82.8637 28.5165 0
-32.3984 84.2376 30.6448 0
-30.7222 81.1644 31.3061 0
-32.0592 77.1962 31.0564 0
-28.8535 41.0884 47.5597 0
-31.087 43.2814 46.6228 0
-29.3709 35.7015 46.2714 0
-28.0755 38.8679 47.8404 0
-27.7565 36.7813 44.1514 0
-30.1311 31.1243 40.7355 0
-30.1468 32.913 42.454 0
-31.2634 23.2881 43.4436 0
-31.1099 27.2873 41.9603 0
-31.7922 26.4812 40.5298 0
-30.5345 21.7444 39.3203 0
-30.7174 25.3161 38.5547 0
-30.623 16.9508 44.6187 0
-31.8628 18.7992 43.8065 0
-26.1281 17.8606 47.159 0
-28.3112 17.3296 45.8439 0
-26.7421 17.6361 43.715 0
-23.0902 16.1413 42.5528 0
-25.1014 18.0688 41.2723 0
-30.7682 18.3097 39.3053 0
-29.8998 18.9825 37.8176 0
-31.3125 18.4958 41.2285 0
-28.5247 16.9295 39.6465 0
-24.9313 17.7862 38.8288 0
-29.6447 17.9458 36.133 0
-26.9605 17.144 36.6446 0
-28.36 17.5707 34.6989 0
-31.5021 32.7623 40.4287 0
-31.4029 29.3185 38.7842 0
-27.8136 25.1628 38.6619 0
-33.2797 105.558 -10.7208 0
-32.2261 104.102 -11.4615 0
-33.8612 104.515 -12.1566 0
-29.989 104.724 -8.82034 0
-28.8678 103.045 -9.2738 0
-30.6813 103.549 -10.5208 0
-28.8329 102.921 -6.35384 0
-28.8632 100.56 -7.14846 0
-28.1303 102.246 -7.99235 0
-31.7044 99.8748 -7.65935 0
-28.0413 101.295 -9.72668 0
-31.6663 93.781 20.2967 0
-30.0975 93.133 21.6502 0
-29.1492 100.404 -2.85433 0
-31.1287 97.4376 -1.74405 0
-29.5897 98.8592 -0.00993608 0
-27.6922 102.391 1.15254 0
-29.0576 99.6768 2.56028 0
-31.6021 102.099 -6.45061 0
-29.6233 105.017 -6.20581 0
-30.4649 103.565 -5.51872 0
-32.6334 104.02 -5.36054 0
-33.5573 106.175 -4.72715 0
-34.6935 104.711 -5.2348 0
-30.9128 106.601 -8.73951 0
-29.4705 106.151 -7.18723 0
-34.611 106.903 -9.99984 0
-32.6973 106.699 -9.33551 0
-32.225 108.146 -8.52157 0
-32.7923 110.146 -8.40481 0
-31.8393 109.604 -7.44346 0
-31.6601 107.771 -5.32013 0
-33.4517 108.058 -3.77463 0
-30.3203 107.134 -6.31778 0
-31.5819 108.684 -6.2807 0
-32.1393 110.698 -6.1915 0
-34.4263 109.662 -3.06063 0
-35.3591 108.37 -2.28035 0
-33.2198 111.822 -5.37469 0
-33.5568 110.961 -4.34631 0
-36.1135 110.793 -1.89032 0
-36.9035 111.788 -0.430327 0
-36.9941 110.738 0.236134 0
-29.3028 103.849 0.398107 0
-28.6956 105.255 1.89269 0
-32.1066 102.698 -3.06763 0
-30.3679 103.735 -1.48674 0
-30.9978 105.827 0.442062 0
-33.1025 106.204 0.626234 0
-30.3792 107.887 0.961646 0
-33.9849 100.289 -6.24298 0
-33.8092 101.054 -4.80323 0
-33.7049 100.088 -7.27632 0
-34.5603 102.885 -5.86737 0
-35.8638 105.759 -4.89353 0
-35.6148 105.313 -0.862261 0
-34.7458 107.389 0.448039 0
-35.0351 103.533 -2.96948 0
-36.1421 105.4 -3.0314 0
-35.9015 106.979 -2.69213 0
-35.9671 108.542 0.464815 0
-33.1204 109.703 0.126765 0
-36.7994 108.267 -1.0922 0
-36.638 109.624 0.439218 0
-35.3822 111.043 0.891543 0
-28.6461 108.089 2.39356 0
-28.9527 106.847 3.54982 0
-29.217 110.157 1.33836 0
-29.0892 109.189 1.88156 0
-29.6715 109.72 3.64638 0
-30.755 110.618 5.0587 0
-32.2537 109.639 5.01537 0
-30.8826 111.474 0.445893 0
-29.8436 110.998 0.583161 0
-33.1561 112.141 0.933805 0
-31.9583 111.755 0.8328 0
-29.4964 112.236 2.37596 0
-28.3225 112.71 3.78993 0
-28.4983 112.494 4.17416 0
-29.9768 111.402 4.68775 0
-32.0598 111.315 5.28363 0
-29.1549 111.342 2.96398 0
-29.261 112.062 4.36269 0
-29.6409 112.734 5.08037 0
-32.6978 112.004 5.40849 0
-34.9038 110.613 5.46483 0
-30.0162 113.573 5.43067 0
-31.0229 112.939 5.60904 0
-32.6454 112.653 5.78203 0
-32.4591 112.91 7.00627 0
-34.3515 111.703 7.29236 0
-33.7407 93.7295 19.4771 0
-31.7391 94.3098 20.7869 0
-35.1268 96.8901 15.5875 0
-33.7164 95.6311 17.893 0
-34.3805 95.1659 19.0978 0
-34.4944 98.1343 17.62 0
-34.529 95.2998 19.7714 0
-36.1257 94.6711 12.3865 0
-36.3756 96.1214 13.3701 0
-34.2735 95.2221 11.9382 0
-31.9674 96.1643 11.4137 0
-33.6804 97.1796 12.2833 0
-36.5752 98.4551 14.4036 0
-36.0567 99.3095 15.6281 0
-36.2664 97.4249 13.7688 0
-35.6758 97.8119 13.2274 0
-34.0456 98.6326 13.1569 0
-36.3094 99.9173 14.6383 0
-35.5855 99.3402 16.9804 0
-32.2825 100.209 13.0528 0
-34.7032 100.083 13.5975 0
-35.4083 101.041 14.3884 0
-33.3821 102.782 14.9402 0
-36.3836 101.529 14.8283 0
-36.4724 95.7488 6.27721 0
-36.5867 99.7064 4.23904 0
-37.4027 99.8263 7.24213 0
-34.556 101.128 3.37145 0
-29.7767 101.104 4.66435 0
-30.8517 103.751 14.3359 0
-31.5399 104.552 15.2049 0
-30.5085 100.226 12.4002 0
-30.6323 101.974 13.5754 0
-29.9771 104.399 12.8259 0
-30.3728 104.432 11.1721 0
-30.6145 105.729 11.9809 0
-31.9765 95.3797 10.0032 0
-30.3222 97.7258 11.3042 0
-34.6186 94.0805 8.71919 0
-34.0752 95.5873 8.2258 0
-34.056 97.8965 7.87519 0
-29.9173 102.834 10.2211 0
-31.6324 105.029 8.73075 0
-29.8369 100.238 11.2309 0
-30.4404 100.006 9.20915 0
-34.1557 100.307 8.25189 0
-34.1616 104.588 6.74853 0
-33.8558 106.746 7.04894 0
-33.3178 101.965 8.04946 0
-32.6961 103.532 6.28909 0
-30.3422 105.354 5.21559 0
-30.9692 106.171 14.549 0
-32.494 105.166 15.815 0
-32.3828 106.803 10.7793 0
-31.0166 106.551 12.8025 0
-31.3957 107.491 13.5331 0
-33.3436 107.96 12.3649 0
-31.9455 108.265 13.8892 0
-34.6214 107.699 6.34187 0
-33.8013 107.487 8.49105 0
-32.0194 107.672 5.48797 0
-33.4468 108.828 5.82848 0
-35.064 108.972 5.82807 0
-35.2949 107.403 10.5577 0
-35.778 108.067 11.3982 0
-34.649 107.156 9.68005 0
-35.724 108.397 8.28991 0
-35.8713 109.298 6.75539 0
-37.1166 108.826 9.81505 0
-35.8772 109.306 12.1578 0
-36.4384 109.629 7.60968 0
-36.3773 110.109 8.10318 0
-35.4982 110.347 8.52219 0
-31.2975 95.2496 21.405 0
-30.5048 94.4328 22.6828 0
-34.1931 95.786 20.1362 0
-32.7998 95.4588 20.6249 0
-31.4148 95.8102 22.0953 0
-31.9014 96.1377 22.9458 0
-31.6409 94.8875 24.015 0
-35.6691 98.4161 18.2841 0
-35.3374 96.4628 19.4184 0
-37.0622 101.872 14.9439 0
-36.4688 100.311 16.5342 0
-36.0379 97.7405 19.5383 0
-36.5734 97.83 20.2611 0
-35.3407 97.5432 21.1942 0
-32.69 96.9427 22.3352 0
-32.3073 96.5198 23.9871 0
-33.8151 96.7024 20.9566 0
-33.8581 97.5173 21.7513 0
-34.0612 98.2308 22.4801 0
-32.7585 96.92 24.787 0
-32.5485 95.4301 25.7358 0
-34.3433 98.8401 23.1784 0
-33.1894 98.4057 23.8949 0
-33.3922 97.2368 25.2495 0
-34.0794 97.3903 25.7116 0
-34.0479 95.9199 26.5323 0
-33.2156 105.835 16.1987 0
-35.2758 104.238 15.1713 0
-32.1757 109.229 14.6082 0
-32.1053 107.592 15.542 0
-33.818 106.205 16.4259 0
-34.1716 106.48 16.7957 0
-35.943 103.934 15.7363 0
-35.6651 110.697 12.0452 0
-32.8393 110.629 13.8501 0
-34.8306 110.107 8.56642 0
-35.7534 109.825 9.81671 0
-35.4323 110.926 11.819 0
-34.7898 111.145 12.0801 0
-33.2213 111.963 14.7667 0
-32.1886 108.774 17.0737 0
-34.3979 106.546 17.2898 0
-31.4885 110.282 15.5928 0
-31.6762 110.93 16.7031 0
-32.6834 111.351 17.6034 0
-34.9793 106.064 17.6282 0
-35.1058 102.878 16.967 0
-33.7017 111.495 18.4522 0
-34.0405 108.633 18.7743 0
-34.659 104.674 18.4458 0
-33.8479 103.985 19.3578 0
-34.2747 101.962 19.7444 0
-34.5904 98.6466 24.9763 0
-34.0515 98.2409 26.3881 0
-35.7575 98.6531 22.5622 0
-34.7095 99.2495 23.8599 0
-34.9567 99.7013 24.5986 0
-35.8703 100.253 23.9166 0
-35.0127 100.483 25.2102 0
-36.5184 99.1548 18.8453 0
-36.7403 98.1765 20.8736 0
-36.701 101.879 15.7304 0
-36.3454 101.434 16.6215 0
-35.9883 100.934 17.4236 0
-36.4224 99.852 22.0781 0
-36.5142 100.608 23.0187 0
-36.6751 98.833 21.4039 0
-37.1778 99.5278 20.0099 0
-36.1592 100.565 18.129 0
-36.6059 101.057 21.83 0
-36.611 101.62 23.7588 0
-36.1516 100.852 19.0131 0
-35.696 101.148 20.1643 0
-35.029 101.401 21.1987 0
-34.7794 98.7658 26.8359 0
-35.1695 97.0207 27.1663 0
-35.2873 101.123 26.0066 0
-34.8843 100.009 26.5934 0
-35.3225 99.2596 27.5915 0
-35.6694 99.6672 28.4389 0
-36.5584 98.05 28.3675 0
-36.8462 102.493 24.2976 0
-36.1667 101.933 25.2392 0
-34.5423 102.245 22.2351 0
-36.3409 102.878 22.6315 0
-36.8803 103.702 24.3145 0
-35.9852 104.62 24.1278 0
-36.7492 103.857 25.7979 0
-35.4717 101.176 27.9755 0
-35.8994 100.051 29.1901 0
-35.7286 101.863 26.5924 0
-36.2829 102.629 27.0082 0
-36.366 103.776 27.0788 0
-36.1981 100.714 29.6706 0
-36.1858 98.656 30.1032 0
-36.0002 105.111 27.0879 0
-36.1687 102.93 28.424 0
-36.2733 101.6 29.9834 0
-35.541 102.329 29.8018 0
-35.5227 100.035 31.0209 0
-36.2204 110.489 -11.4623 0
-34.7772 104.401 27.9258 0
-34.6072 102.781 29.1512 0
-34.8136 105.826 25.8271 0
-34.9548 105.83 26.892 0
-33.8201 106.099 26.8826 0
-32.4752 106.009 25.9381 0
-32.7362 106.592 27.0109 0
-34.4059 104.044 23.7817 0
-34.6318 104.952 24.8492 0
-33.0812 102.93 20.9875 0
-34.049 103.344 22.7724 0
-32.9487 103.173 22.9023 0
-31.8637 103.12 21.2294 0
-32.0693 103.348 22.7597 0
-32.3501 104.985 24.9288 0
-31.3844 104.683 24.8347 0
-33.4229 104.988 25.0384 0
-32.2584 103.99 24.0105 0
-31.2833 103.149 22.4581 0
-30.4362 103.35 23.3333 0
-30.5717 104.184 24.4102 0
-30.5291 102.671 20.806 0
-30.4485 102.84 22.0801 0
-29.8058 102.388 21.5571 0
-29.2091 101.933 20.1469 0
-29.2697 101.882 21.0141 0
-33.7226 107.465 19.4785 0
-33.0764 104.105 19.708 0
-32.7033 112.413 15.8666 0
-34.1118 111.26 19.2305 0
-33.1672 110.702 19.5569 0
-32.1378 112.577 18.5345 0
-32.4494 110.151 19.2469 0
-34.5039 110.092 10.8006 0
-34.26 111.714 12.6036 0
-33.2437 111.372 8.18066 0
-34.0688 110.314 8.83222 0
-33.4262 110.273 9.39814 0
-32.1941 110.719 8.11129 0
-32.9034 110.131 10.0435 0
-32.8667 113.017 14.0591 0
-32.1298 113.187 15.0137 0
-33.6204 112.367 13.2483 0
-33.368 110.66 12.0548 0
-32.4682 109.717 10.6806 0
-31.7994 112.499 12.8829 0
-31.646 112.737 16.1915 0
-31.1938 109.513 9.64046 0
-31.7564 110.171 11.3932 0
-30.9093 110.885 11.9106 0
-29.6205 109.882 11.1659 0
-30.1277 111.799 12.204 0
-29.2233 102.638 19.3252 0
-28.4418 102.482 19.0941 0
-30.5364 103.324 19.363 0
-29.8871 102.919 19.3704 0
-29.1667 104.09 18.2382 0
-29.265 106.368 17.9848 0
-28.5376 105.73 18.2875 0
-31.9159 103.834 19.7296 0
-31.2133 103.719 19.5045 0
-32.338 104.188 19.8286 0
-32.1053 106.854 19.1409 0
-31.6231 109.386 18.9922 0
-30.0357 107.363 18.0896 0
-29.775 108.934 18.9603 0
-30.836 105.268 18.2407 0
-30.6932 108.334 18.6466 0
-31.2492 111.812 19.314 0
-30.421 111.677 18.1369 0
-29.9049 110.509 18.7716 0
-31.1382 112.52 17.3812 0
-30.7519 113.038 14.1741 0
-27.7239 102.685 19.1692 0
-31.1372 113.822 7.15171 0
-32.0603 112.934 7.81207 0
-29.0228 113.978 5.05195 0
-30.1498 114.156 5.96126 0
-29.9954 114.558 7.05955 0
-29.0987 115.423 6.64593 0
-29.7331 114.329 7.42311 0
-28.7226 113.191 2.96487 0
-28.2266 113.551 4.12371 0
-34.2254 112.679 1.34299 0
-31.347 113.163 1.43816 0
-29.7619 113.77 2.10645 0
-28.068 115.679 5.17568 0
-28.0755 114.459 4.43646 0
-36.8355 112.587 -1.31624 0
-36.3985 112.612 0.742944 0
-33.3378 112.442 -6.31981 0
-34.7322 112.449 -4.19298 0
-36.11 113.252 -2.78428 0
-34.499 110.356 -8.89205 0
-33.6605 111.662 -7.84019 0
-35.4584 108.826 -9.74383 0
-35.9898 110.507 -9.71035 0
-35.8174 111.708 -9.65826 0
-34.0732 112.662 -7.29657 0
-34.7687 112.703 -8.30225 0
-35.2537 112.541 -9.54179 0
-30.3665 110.808 8.13868 0
-29.8352 110.08 8.61461 0
-31.2435 112.052 7.67889 0
-30.8423 111.51 7.42004 0
-31.6803 112.503 7.91551 0
-30.4561 113.216 7.57479 0
-29.3215 113.815 7.56047 0
-28.6145 112.257 6.67718 0
-29.6358 111.875 6.98073 0
-28.9682 113.028 7.415 0
-33.5456 102.986 28.5743 0
-34.0673 101.012 30.3194 0
-31.6574 107.27 27.2883 0
-32.9408 105.084 27.1979 0
-32.9405 103.144 28.1459 0
-32.0336 103.638 27.5856 0
-33.2461 101.05 29.2246 0
-29.9199 103.511 23.7927 0
-30.7708 105.041 25.8344 0
-28.1905 101.566 20.0958 0
-29.4214 101.966 22.1174 0
-29.5748 102.293 23.5379 0
-28.5862 101.595 23.059 0
-29.4358 102.892 24.92 0
-30.9516 106.066 27.3371 0
-31.3503 104.329 27.2336 0
-30.8384 105.971 26.838 0
-29.8417 104.647 25.9834 0
-29.145 103.531 25.7976 0
-30.5571 104.617 27.2248 0
-31.8095 102.03 27.2289 0
-28.5568 102.433 25.9148 0
-29.1899 104.009 26.6118 0
-29.5273 104.372 27.391 0
-28.6558 103.976 27.6184 0
-30.0674 103.684 27.3983 0
-25.8879 13.3571 58.7202 0
-26.0578 15.0946 59.3641 0
-26.1302 13.3224 57.9478 0
-26.2033 13.3072 56.9967 0
-26.9857 14.5559 58.0233 0
-26.1814 13.5501 55.9995 0
-26.2006 13.9783 55.0974 0
-27.3374 14.5249 56.014 0
-26.0038 14.5745 54.0609 0
-25.8786 15.2349 53.0746 0
-27.1877 15.2621 53.897 0
-25.8161 15.6637 51.9752 0
-25.3322 16.5966 51.6087 0
-26.9379 16.1124 52.1172 0
-24.4129 16.2232 50.5847 0
-25.2333 17.2852 50.933 0
-24.0369 15.7848 49.4629 0
-24.2728 16.5088 48.7398 0
-25.5268 17.777 50.0191 0
-26.7734 17.2883 50.5012 0
-24.7434 17.706 49.135 0
-25.7259 18.2197 49.1364 0
-26.01 17.9633 48.4262 0
-26.9476 17.5366 49.0205 0
-22.9663 60.44 51.5774 0
-22.0513 57.2083 52.733 0
-21.3731 55.7756 53.9659 0
-22.3808 57.6723 54.0447 0
-20.8081 53.8407 53.6483 0
-20.4881 54.4708 55.0215 0
-20.711 51.6401 53.0329 0
-19.9495 49.8503 54.1176 0
-18.3291 46.7831 52.4488 0
-16.1503 44.8422 50.8625 0
-13.9343 44.1257 48.841 0
-20.2749 52.6329 55.6733 0
-20.8426 54.9971 55.998 0
-18.8085 48.0732 54.9332 0
-19.6063 50.1006 55.6193 0
-20.2423 49.9231 56.2364 0
-19.4898 46.9074 56.4485 0
-20.6023 49.8392 56.6078 0
-16.6592 45.6668 53.4884 0
-17.7762 46.6399 54.2941 0
-14.1393 44.7759 51.3958 0
-15.3467 45.1701 52.4767 0
-14.741 45.0376 54.1359 0
-13.3732 44.0688 53.9241 0
-13.9847 44.9792 55.3921 0
-17.4809 45.3456 55.643 0
-18.335 45.2638 55.6129 0
-17.1179 46.1569 55.7191 0
-15.4529 45.0755 56.0261 0
-14.4858 44.1813 54.8226 0
-17.148 43.9647 54.1019 0
-19.4187 45.0943 55.0302 0
-14.0626 42.6793 53.3005 0
-15.3179 43.3909 53.5867 0
-16.1863 42.75 52.3437 0
-15.7318 41.1085 51.6528 0
-17.258 42.4597 51.6074 0
-13.1207 43.1287 49.4954 0
-13.5816 43.9362 50.4121 0
-14.6066 39.2184 48.0283 0
-13.4305 41.6327 48.7259 0
-12.7968 41.0093 49.9931 0
-13.3267 38.5981 50.7589 0
-12.4973 40.658 51.5483 0
-16.6169 37.2297 47.7526 0
-16.045 30.8917 48.3799 0
-15.0111 36.9409 50.2487 0
-13.7632 36.1059 51.059 0
-15.9201 37.2839 49.1228 0
-16.1893 34.6499 49.6096 0
-15.8632 31.4598 49.5387 0
-14.4584 34.309 51.5128 0
-13.0015 35.9087 52.2006 0
-16.2031 29.679 49.1273 0
-15.6054 32.1851 50.6917 0
-15.3077 32.6715 51.7789 0
-15.8513 31.153 51.5228 0
-15.228 33.2877 52.8091 0
-14.528 40.2734 52.4604 0
-15.7461 39.7005 51.964 0
-13.0759 41.7191 53.4285 0
-13.6936 40.8645 53.0479 0
-13.3128 39.1987 53.4661 0
-12.2373 38.2885 54.8273 0
-13.3973 37.906 54.367 0
-12.0352 43.4588 53.2746 0
-12.332 42.8153 53.5299 0
-12.6482 43.8963 51.8083 0
-12.0385 42.6435 52.3479 0
-11.9581 39.7422 52.6718 0
-11.8537 38.6116 54.3943 0
-12.0895 36.8719 55.2906 0
-12.3473 40.5388 53.4818 0
-11.7622 39.041 53.6111 0
-11.8899 37.2823 53.0836 0
-12.5752 35.5288 55.0664 0
-12.694 35.3022 55.7693 0
-13.0278 35.9491 53.6931 0
-13.9356 34.7106 53.934 0
-14.8031 33.4314 53.7618 0
-15.9405 38.7563 52.67 0
-17.1491 39.4572 51.3963 0
-13.9427 37.0815 55.3754 0
-14.7623 37.9974 54.0315 0
-16.3137 38.3305 53.5903 0
-16.6382 37.9715 54.4716 0
-17.7726 38.5343 52.7629 0
-13.6521 34.4309 55.6054 0
-13.537 35.7399 56.022 0
-15.5554 32.0724 53.5281 0
-14.5203 33.4308 54.539 0
-14.8212 33.6208 55.1713 0
-15.8479 32.628 54.9847 0
-15.4273 33.7879 55.7833 0
-15.6721 36.8732 55.9435 0
-16.9502 37.4187 55.2283 0
-14.5491 36.494 56.0973 0
-15.1994 35.2113 56.3627 0
-15.923 34.0946 56.4811 0
-17.336 36.6365 55.7612 0
-18.2472 37.3379 53.7991 0
-16.6762 33.1446 56.7641 0
-16.7346 34.9047 56.7393 0
-17.8351 35.8802 56.2296 0
-18.3371 35.0475 56.5648 0
-18.8166 36.4324 54.8291 0
-20.3751 20.428 53.3552 0
-22.5579 16.5843 58.7141 0
-23.4664 16.7143 58.9502 0
-18.2769 33.1593 57.2605 0
-19.0438 34.2988 56.5385 0
-17.0943 31.9778 55.8923 0
-17.5661 32.3543 56.8435 0
-18.5731 31.9993 56.3307 0
-19.2773 31.1761 55.637 0
-19.8738 31.5834 56.3872 0
-16.3314 31.3748 54.1779 0
-16.6839 31.6796 55.0131 0
-16.4565 30.8063 52.3999 0
-16.237 31.0531 53.3413 0
-17.2358 30.5092 53.2589 0
-18.118 29.4132 52.51 0
-18.3837 30.1839 53.2427 0
-18.7742 30.8457 54.9352 0
-20.0783 30.5395 54.8235 0
-17.5657 31.1071 55.0062 0
-18.3019 30.3469 54.1804 0
-19.2773 29.5989 53.3534 0
-20.899 29.9016 54.075 0
-21.4614 29.7732 55.0627 0
-20.2915 29.2386 52.416 0
-20.6018 29.8641 53.1443 0
-21.7757 29.1246 53.6849 0
-22.5769 27.67 54.0083 0
-23.5295 27.7269 55.1071 0
-16.4812 29.3097 50.3698 0
-16.5775 30.1315 51.463 0
-17.4074 28.2245 47.7694 0
-16.9354 28.7691 49.0943 0
-17.5614 28.1519 49.2403 0
-18.9411 27.5265 48.0714 0
-18.3105 27.8495 49.3766 0
-20.2465 26.7679 47.5158 0
-22.0838 27.6455 52.9396 0
-23.8363 26.3994 54.6363 0
-19.9288 28.5421 51.7241 0
-21.1068 28.5888 51.9029 0
-21.8527 27.3957 52.071 0
-21.6432 26.4811 51.8047 0
-22.7156 25.5821 53.4233 0
-17.9589 28.8282 51.5816 0
-18.8794 28.6301 51.6515 0
-17.1981 29.4265 51.4384 0
-17.9725 28.3242 50.5405 0
-19.2315 27.7286 49.5877 0
-20.9655 27.1092 50.5528 0
-21.8934 26.0298 51.4595 0
-19.7538 27.9282 50.9057 0
-20.2526 27.4718 49.9066 0
-21.3225 25.0747 51.3339 0
-21.118 24.6257 53.1932 0
-22.644 25.7723 55.7113 0
-23.52 24.9272 56.088 0
-21.9842 25.1928 55.1439 0
-22.6184 25.4948 55.0281 0
-23.0892 22.9587 54.3578 0
-24.3168 20.2084 53.5325 0
-25.0621 20.6633 53.6415 0
-21.1246 24.9014 55.3384 0
-21.391 20.6064 53.4869 0
-23.3897 20.2016 53.646 0
-24.6512 18.7765 54.2188 0
-21.7187 23.0953 55.9282 0
-22.4205 20.4406 53.7798 0
-22.8698 18.4066 54.2182 0
-24.485 18.1294 56.2466 0
-25.2683 18.4411 56.4698 0
-23.6437 17.7922 56.0599 0
-23.9756 17.7068 57.9437 0
-19.9712 33.9317 56.1637 0
-19.2886 35.0622 54.588 0
-21.1161 30.9378 56.4908 0
-20.2879 32.2366 56.9058 0
-20.7128 33.3529 56.0024 0
-21.9097 32.5699 55.6356 0
-21.0323 33.5332 53.7251 0
-23.5111 29.1507 55.6463 0
-22.1822 29.9847 55.8793 0
-24.4956 25.9217 57.111 0
-24.521 27.73 56.1448 0
-25.2443 27.6465 57.1306 0
-26.6825 26.3091 56.3247 0
-26.0877 27.8106 57.6128 0
-23.3861 31.1115 56.9942 0
-23.7099 31.3431 55.746 0
-22.8345 30.3489 56.6289 0
-24.9934 29.4541 57.5108 0
-27.0797 28.4568 57.3086 0
-25.8203 30.1537 55.7589 0
-23.4221 31.1443 53.8449 0
-28.6341 27.4723 55.2555 0
-27.8923 29.4853 56.592 0
-27.8036 29.6197 55.1331 0
-29.3914 27.9222 53.8672 0
-27.5422 29.1798 53.3722 0
-25.3383 22.7935 53.7614 0
-24.5929 24.4349 55.9678 0
-26.0182 19.6226 55.2056 0
-25.844 21.0847 53.886 0
-26.6678 21.3318 54.1698 0
-27.4516 20.2612 55.5009 0
-27.441 21.7711 54.3643 0
-25.5117 18.0037 58.1343 0
-25.9431 18.5806 56.646 0
-25.0426 17.0232 59.1959 0
-25.8959 16.4173 58.9935 0
-26.8825 16.2424 59.1839 0
-27.3373 18.6627 56.7901 0
-27.9557 18.8882 56.7057 0
-26.6465 18.4422 56.6753 0
-27.2671 17.1872 58.0815 0
-27.1581 16.0112 58.5007 0
-28.1607 16.9332 56.9812 0
-28.5006 18.8604 56.346 0
-27.5594 15.6003 57.5427 0
-28.0739 15.3992 56.6344 0
-28.2326 15.6693 55.7925 0
-30.5931 25.3695 53.6791 0
-30.7887 25.5086 53.0382 0
-29.0033 25.7373 53.8443 0
-29.9078 25.3768 54.1695 0
-30.9343 23.2857 53.8464 0
-30.6695 21.7023 54.5403 0
-31.4873 21.2215 53.4388 0
-27.0465 24.8531 54.2709 0
-28.0326 25.3822 53.8295 0
-25.9303 24.4213 55.2327 0
-27.2663 23.3329 53.5569 0
-28.138 22.2763 54.6611 0
-30.052 22.152 54.5114 0
-30.2175 19.7903 54.5059 0
-28.9457 24.1429 53.7681 0
-28.9966 22.4798 54.549 0
-28.8905 20.6631 55.4069 0
-29.6359 18.3084 55.0714 0
-30.1734 18.1303 54.1903 0
-29.0751 18.6925 55.8615 0
-29.054 16.9822 55.589 0
-28.2622 15.9184 54.852 0
-32.375 23.175 52.4279 0
-30.9448 25.1612 52.3115 0
-31.4563 19.3323 52.8232 0
-32.3954 21.3055 52.5924 0
-32.9598 21.2679 51.7172 0
-32.6446 19.3243 51.1976 0
-33.0592 21.0954 50.7395 0
-29.3938 17.1408 53.5066 0
-30.9773 17.7413 53.5782 0
-28.4335 16.0873 53.9783 0
-28.388 16.3579 52.9623 0
-28.4849 16.691 52.0964 0
-32.0365 17.7289 51.8468 0
-31.7775 17.8972 50.781 0
-31.9746 17.4644 52.8472 0
-30.3518 17.0464 52.0071 0
-28.4983 16.956 51.2845 0
-30.0702 17.1864 50.1384 0
-31.6064 17.6382 49.7424 0
-28.4017 17.137 50.3942 0
-28.3033 17.0445 49.591 0
-28.1862 16.907 48.8706 0
-22.2864 63.005 50.6498 0
-23.3684 64.2733 49.3204 0
-23.5863 65.2223 50.4811 0
-24.5499 65.1359 48.9658 0
-23.3447 61.1607 52.7997 0
-23.0279 62.2133 51.7759 0
-22.9537 58.2383 54.5906 0
-23.3894 59.8304 53.6759 0
-24.1573 61.3992 53.1274 0
-24.9232 61.2203 52.9778 0
-24.5141 62.6541 52.6849 0
-23.335 64.9991 51.5396 0
-24.1345 66.0574 51.0313 0
-22.9649 63.8179 51.6149 0
-23.9547 63.8472 51.8893 0
-24.883 63.848 51.8209 0
-25.0112 66.4944 50.9851 0
-25.0693 67.4161 50.2099 0
-25.5995 63.9944 51.4281 0
-25.1944 65.2756 51.1099 0
-25.7391 66.9586 50.6344 0
-26.4682 67.4689 50.5711 0
-26.5201 68.3881 50.1723 0
-28.5529 70.2947 45.523 0
-29.6187 71.6774 44.8626 0
-25.4961 66.3793 48.187 0
-27.0834 69.0705 46.255 0
-27.68 69.8185 46.7059 0
-26.3129 67.6581 47.3372 0
-25.5827 67.6853 48.7853 0
-27.0233 69.6573 48.2201 0
-28.4345 70.3097 47.1892 0
-25.8807 68.8825 49.2792 0
-26.569 69.3393 49.4672 0
-27.4456 69.4766 49.3208 0
-30.1765 72.137 45.1767 0
-30.8854 72.9095 44.0737 0
-31.8288 74.5818 43.4791 0
-32.2646 75.178 43.7233 0
-32.077 76.7747 43.1651 0
-29.1254 70.8418 47.4423 0
-29.5684 71.5328 46.2697 0
-28.2932 69.8218 49.319 0
-28.6101 70.6992 48.6318 0
-29.8538 71.1928 47.506 0
-30.4405 71.7071 47.5052 0
-30.7892 72.2765 46.6259 0
-31.9375 73.8857 44.781 0
-32.6152 75.5959 44.0191 0
-30.8211 72.4864 45.4691 0
-31.3917 72.9926 45.7753 0
-31.9802 73.4907 45.9482 0
-32.6513 76.0311 44.4747 0
-32.0458 77.4563 44.0631 0
-32.4132 73.9933 46.1064 0
-32.8495 74.7509 45.2374 0
-32.5622 76.5361 44.9194 0
-32.4049 77.0308 45.3368 0
-32.1015 78.1951 44.8995 0
-28.6242 87.2181 41.5586 0
-28.5741 86.327 42.2826 0
-29.3902 87.1173 40.9348 0
-28.8713 82.6273 43.3946 0
-28.1461 84.4521 43.2419 0
-28.4925 84.8307 43.2517 0
-28.9735 83.2858 43.8475 0
-28.8323 84.9683 43.2318 0
-31.714 77.8555 42.7056 0
-31.6094 78.4372 43.2034 0
-29.6351 81.6046 43.7039 0
-29.692 81.91 43.8846 0
-29.8184 81.2261 43.332 0
-30.8087 80.0093 43.4101 0
-31.5556 78.7738 43.6979 0
-30.4514 80.4919 44.1788 0
-29.8212 81.9541 44.0391 0
-31.5004 79.0389 44.1059 0
-31.3361 79.3101 44.5341 0
-31.1834 79.6441 44.873 0
-29.7962 86.5299 37.1362 0
-29.5193 87.8463 33.3785 0
-27.4763 94.0609 29.2674 0
-28.5422 101.406 27.6516 0
-29.9283 86.7234 40.3059 0
-29.8703 86.7224 38.712 0
-29.174 84.8505 42.8912 0
-29.4876 86.2188 41.7515 0
-30.3574 86.4752 39.7849 0
-30.8638 86.5688 39.5436 0
-30.9068 87.2202 37.6697 0
-30.0201 82.0109 44.1963 0
-29.5059 83.2189 43.6758 0
-31.0988 80.0263 45.1037 0
-30.515 81.0806 44.7033 0
-30.1968 82.2578 44.4841 0
-30.547 82.4718 44.635 0
-30.2363 83.8111 43.6805 0
-30.4518 86.3207 41.3885 0
-31.4051 86.6942 39.6853 0
-29.6335 84.9446 42.5697 0
-30.2069 85.2723 42.5783 0
-30.7997 85.6758 42.7764 0
-32.118 86.8622 39.8879 0
-31.7943 88.0865 38.2115 0
-31.4261 86.0434 43.0032 0
-31.7614 86.7577 41.6348 0
-32.7471 87.3669 40.0112 0
-33.2082 87.8463 40.1399 0
-33.2035 88.4224 38.4116 0
-28.424 98.2056 27.7341 0
-29.281 101.398 27.0111 0
-28.8626 91.3093 31.7944 0
-28.3497 94.3509 29.4647 0
-29.1783 94.6758 30.1849 0
-29.8641 92.9593 32.6586 0
-29.3793 95.3104 31.3262 0
-30.6847 87.0252 34.7474 0
-30.1646 88.6631 33.3312 0
-30.5452 86.4953 36.4737 0
-31.2831 86.8633 36.1651 0
-31.9407 87.5095 36.1822 0
-30.6852 90.7404 33.6903 0
-30.9563 91.6298 34.0723 0
-30.496 89.7038 33.4502 0
-31.5511 88.692 35.0496 0
-32.3152 88.2295 36.4048 0
-31.8868 90.4757 35.4646 0
-31.1759 92.4821 34.5745 0
-32.3746 88.8621 36.7119 0
-32.5088 89.3111 36.9656 0
-32.5146 89.8392 37.2799 0
-30.0829 100.592 27.3103 0
-29.6997 95.654 32.1584 0
-29.9823 97.9279 29.4832 0
-30.9718 99.848 28.4177 0
-31.7739 99.4892 29.3158 0
-31.3504 93.118 35.0924 0
-29.974 94.4069 34.1005 0
-33.0062 90.3072 37.4857 0
-32.27 91.5992 36.2343 0
-31.4226 93.5447 35.6272 0
-31.8212 93.6748 36.0539 0
-30.7622 95.0056 35.1452 0
-31.2106 97.9757 31.3348 0
-32.5432 99.3827 30.1074 0
-30.0744 96.0574 32.8824 0
-30.5556 96.4947 33.4212 0
-30.8132 96.7598 33.8265 0
-32.9583 99.5533 30.832 0
-31.2178 96.8098 33.9411 0
-32.0695 98.3724 32.3757 0
-32.941 100.046 31.6615 0
-33.2055 99.7482 32.0717 0
-22.0414 55.1208 55.9577 0
-22.3716 56.8072 55.5886 0
-21.2016 49.8661 56.118 0
-21.9574 52.6319 56.4115 0
-22.954 55.2633 55.3876 0
-23.6436 55.5093 54.3064 0
-24.1882 57.0964 54.0564 0
-20.4132 45.0949 54.2147 0
-20.8437 47.021 55.4569 0
-18.4945 42.3503 50.8546 0
-19.1971 43.8157 52.2861 0
-21.1484 45.5948 53.4264 0
-22.28 46.2172 53.065 0
-22.3413 48.4495 53.8932 0
-23.0905 53.2768 54.649 0
-23.9393 55.7358 52.9112 0
-21.8887 50.2343 55.4156 0
-22.7543 50.7762 54.7797 0
-23.6641 51.4627 54.0329 0
-24.8197 55.9735 51.8883 0
-25.3726 57.1688 51.8065 0
-24.4973 52.4007 52.8917 0
-24.3621 54.3855 52.2064 0
-26.2888 56.216 51.1561 0
-27.1188 56.4071 49.8707 0
-26.9323 57.6992 49.5589 0
-18.495 39.6202 50.4941 0
-18.3748 40.875 50.3582 0
-19.1899 38.8321 51.6477 0
-18.823 39.2512 51.0551 0
-19.9534 39.8577 49.5555 0
-21.6991 40.0886 48.8839 0
-21.5994 41.5661 48.7455 0
-19.7205 37.9975 52.6317 0
-19.4724 38.4574 52.1834 0
-19.7907 37.2976 53.4179 0
-19.7735 37.7129 53.1183 0
-20.94 38.8971 51.4992 0
-22.1701 38.9781 50.9963 0
-22.1064 38.6551 50.1539 0
-21.8307 39.4013 48.9918 0
-23.3326 40.7354 48.9174 0
-20.4579 38.6238 50.1933 0
-21.9727 38.908 49.4399 0
-23.3997 39.1942 49.5476 0
-24.8984 41.7909 49.6629 0
-24.7059 43.0002 50.2143 0
-24.7218 40.1295 50.2113 0
-25.009 40.8388 49.575 0
-25.8961 42.8556 51.2125 0
-26.0741 43.6032 53.2955 0
-25.8773 44.7833 54.016 0
-26.6183 54.7165 50.3107 0
-27.9049 56.509 48.9769 0
-24.5548 50.4392 53.2185 0
-25.5988 52.9297 52.3194 0
-26.8421 53.1933 51.6468 0
-26.8553 52.0131 53.2585 0
-27.9914 53.4461 51.2915 0
-21.6254 44.6074 50.9798 0
-23.2407 47.0947 52.8987 0
-19.7665 42.5278 49.905 0
-21.3833 42.9646 49.3901 0
-23.0723 43.6846 49.8969 0
-25.6776 49.2393 53.5919 0
-26.9 50.418 54.3003 0
-24.4195 48.1334 53.2677 0
-24.2599 45.8565 52.7899 0
-24.609 44.5295 51.1794 0
-26.986 48.4642 54.4321 0
-27.5211 51.6126 54.7995 0
-25.3992 45.3454 53.1048 0
-26.349 46.4285 54.4046 0
-27.3462 47.7528 55.5757 0
-28.8086 56.4974 48.2386 0
-28.576 57.9969 47.2958 0
-29.1351 53.9248 51.2715 0
-28.9482 55.1439 49.6562 0
-29.5058 56.9017 48.324 0
-30.3608 57.2397 48.6858 0
-29.9139 58.3559 47.5957 0
-28.2279 52.2682 54.9542 0
-29.0393 53.0579 53.0982 0
-28.1085 48.737 56.4538 0
-28.1096 50.7671 56.0573 0
-29.2654 52.5654 54.9879 0
-30.2366 52.8108 54.7636 0
-30.8362 53.9694 53.2467 0
-30.6213 56.1433 50.0534 0
-31.1869 57.5481 49.1236 0
-30.1004 54.3605 51.3452 0
-31.0214 54.6668 51.3713 0
-31.711 55.2162 51.5918 0
-31.8584 57.8307 49.659 0
-31.3438 58.8335 49.0477 0
-32.2899 55.4521 51.7134 0
-32.1623 56.7939 50.6518 0
-32.5883 58.0054 50.139 0
-33.0968 57.9116 50.3162 0
-32.8475 59.1522 49.9375 0
-19.7618 36.0026 52.992 0
-19.6657 36.8085 53.5893 0
-20.8827 34.3072 52.2666 0
-20.5145 35.2642 52.6345 0
-20.6147 36.7517 52.0058 0
-21.718 37.2615 51.3532 0
-21.8229 38.2815 51.9573 0
-22.6821 32.1118 52.0311 0
-21.2401 33.0267 51.9656 0
-26.8258 29.2422 51.6959 0
-24.5895 30.4598 52.1257 0
-22.817 33.1839 50.5494 0
-22.5805 33.9083 48.8941 0
-22.2654 35.1779 49.4457 0
-21.6977 36.3138 50.7595 0
-22.873 37.5907 51.1289 0
-21.0834 34.9191 51.1301 0
-21.7389 35.7493 50.0422 0
-22.809 36.124 49.3792 0
-24.0407 37.3182 51.1388 0
-24.5518 37.93 51.9669 0
-24.0584 35.8816 48.9886 0
-23.986 36.6783 50.1386 0
-25.5037 36.771 51.257 0
-26.8826 36.2618 51.5829 0
-27.2049 36.9528 52.763 0
-30.2345 24.9224 51.3554 0
-28.6064 27.3083 51.5104 0
-32.8734 20.9954 49.8513 0
-32.0449 22.8411 50.6338 0
-29.7292 24.8484 50.3761 0
-29.9254 24.9028 49.3367 0
-27.594 26.2014 49.093 0
-31.4231 17.2746 48.8427 0
-32.8162 18.6425 49.3896 0
-27.9376 16.9892 48.1782 0
-29.7062 16.6447 48.4742 0
-31.1338 17.192 48.0797 0
-30.6352 17.089 47.2021 0
-32.3657 18.2528 47.5515 0
-32.1714 23.2597 48.8638 0
-30.1861 24.6827 48.1292 0
-32.8315 20.9919 49.0302 0
-32.7245 20.7392 48.1361 0
-32.8163 19.8811 47.115 0
-30.4883 24.4617 46.9935 0
-28.0035 25.788 46.8727 0
-32.2165 19.0051 46.213 0
-31.8052 22.4129 47.0163 0
-30.879 23.882 45.9896 0
-31.0986 23.2297 45.4193 0
-29.3206 25.3625 45.0684 0
-26.5872 35.4839 50.2554 0
-27.9776 35.5752 51.9973 0
-23.9134 35.0323 47.7572 0
-25.3321 35.6293 48.6963 0
-26.4663 34.9355 48.6782 0
-26.1848 33.7874 47.4456 0
-27.3136 34.2148 48.3229 0
-24.0172 31.1819 49.2517 0
-22.9228 34.0311 47.6084 0
-26.0567 28.9288 50.3256 0
-25.7358 28.5451 49.0766 0
-25.5948 27.7055 47.9425 0
-24.9895 31.8216 46.958 0
-24.9096 30.8208 45.9486 0
-24.2634 33.4052 47.3155 0
-24.5934 29.2844 47.1776 0
-25.9418 27.1643 46.9355 0
-25.316 28.1619 44.9581 0
-25.4267 30.1899 45.0248 0
-26.2992 26.8962 45.8243 0
-27.0595 26.6473 44.8042 0
-28.2222 26.5554 43.9332 0
-29.177 35.6007 51.9938 0
-29.4536 36.5418 53.4786 0
-27.7699 33.1961 48.1192 0
-28.7084 34.7118 50.0079 0
-29.7799 35.4986 51.6999 0
-30.1793 35.5047 51.0744 0
-30.3779 36.8039 52.1821 0
-25.8838 29.7442 43.9491 0
-26.9235 31.2122 46.1906 0
-29.5235 26.5681 43.3714 0
-27.554 27.7802 43.1991 0
-26.993 29.3628 42.8311 0
-28.2028 29.3387 41.8131 0
-27.5985 30.7679 43.9919 0
-29.5556 33.7414 48.8831 0
-30.2862 35.5042 50.3958 0
-28.2165 32.3254 47.3738 0
-28.8147 31.6258 46.4087 0
-29.0219 31.6573 45.3544 0
-30.0109 35.255 49.4568 0
-30.9277 36.8289 50.8856 0
-29.1023 32.0602 44.0051 0
-29.7865 33.0735 46.9735 0
-29.9494 34.9107 48.4748 0
-29.8665 34.3846 47.3575 0
-30.2899 36.6411 49.5349 0
-33.1649 56.3757 50.7038 0
-33.2357 57.4461 49.91 0
-32.0615 54.4624 52.9601 0
-32.8414 55.2025 51.6552 0
-33.3301 54.5942 51.1982 0
-32.7834 53.1856 51.8216 0
-33.035 54.0411 50.5889 0
-29.8194 51.6146 56.125 0
-31.0545 53.0651 54.3343 0
-27.5038 46.61 56.65 0
-28.5384 49.528 56.8645 0
-29.3883 50.1821 56.9033 0
-28.818 48.0722 57.3918 0
-30.1928 50.5178 56.2014 0
-32.3613 52.4202 53.2232 0
-32.2479 51.8976 52.3783 0
-31.8336 52.8572 53.7593 0
-31.5055 51.5389 54.7386 0
-30.5185 50.377 55.1574 0
-31.0367 51.1218 52.856 0
-31.7886 51.6382 51.5456 0
-29.633 49.1405 55.3845 0
-30.3199 50.251 54.1568 0
-29.7112 50.1464 53.2816 0
-28.6012 48.8863 53.4825 0
-28.9303 50.0104 52.5496 0
-26.5782 42.5101 52.7465 0
-26.3591 44.2393 55.1505 0
-24.9067 39.7027 50.5239 0
-26.2277 41.1172 51.0087 0
-27.0287 41.578 52.5076 0
-27.3581 40.8491 52.6053 0
-27.4585 41.965 54.3429 0
-22.1616 39.051 51.6344 0
-23.5363 38.9333 50.8226 0
-20.9807 38.4205 52.6682 0
-22.07 38.7407 52.045 0
-23.4881 38.8333 51.8 0
-26.4673 39.5457 51.5622 0
-27.5789 40.0022 52.853 0
-25.0602 39.0692 50.8382 0
-25.1875 38.8813 51.482 0
-25.1427 38.6192 51.92 0
-27.957 39.0127 53.0377 0
-28.5774 40.0849 54.281 0
-26.5392 38.3388 52.4167 0
-27.6941 37.8448 53.3246 0
-28.661 37.192 54.4749 0
-28.3884 47.5916 54.3121 0
-28.0262 47.2597 53.4263 0
-29.0936 47.521 56.401 0
-28.8513 47.8357 55.2675 0
-28.4999 46.2659 54.9444 0
-29.0606 44.8844 55.1612 0
-29.0436 44.6655 54.2853 0
-28.0253 45.8118 57.4647 0
-28.6861 46.8064 57.5789 0
-27.2098 45.058 56.4274 0
-27.4626 43.6744 56.1139 0
-27.9992 42.6075 55.8777 0
-28.9902 44.5373 56.304 0
-29.4563 43.1483 55.3703 0
-28.6682 45.7304 56.9222 0
-28.668 43.8425 56.6209 0
-28.7109 42.0696 55.5668 0
-29.5404 41.5237 54.9388 0
-29.9067 41.5989 54.2244 0
-29.3553 41.1859 55.2037 0
-29.4258 39.3501 54.7157 0
-29.5866 37.7405 54.4074 0
-27.8844 45.4792 53.1713 0
-27.9419 46.9589 52.4969 0
-29.7101 43.1738 53.4885 0
-28.9525 44.2755 53.3809 0
-29.1853 44.1325 52.5122 0
-30.8084 43.3232 52.216 0
-29.9779 44.4653 51.7327 0
-30.18 39.8827 53.6018 0
-30.1323 41.5447 53.4663 0
-30.1274 38.2513 53.7644 0
-30.1011 38.4875 52.9492 0
-30.3868 38.4333 52.1575 0
-30.927 41.8358 52.2004 0
-31.2522 41.8693 51.5424 0
-30.5238 41.6574 52.8509 0
-30.3812 40.1724 52.0291 0
-30.8233 38.3224 51.5103 0
-31.1423 40.1199 50.7733 0
-30.9582 41.6715 50.7059 0
-31.1304 38.367 50.969 0
-30.8652 38.3213 50.4904 0
-30.242 38.3015 50.0479 0
-33.0606 56.8931 49.1933 0
-33.4479 58.5225 49.0987 0
-32.6687 53.3263 49.9107 0
-33.0147 55.0924 49.5252 0
-32.9199 56.2708 48.5773 0
-32.7009 55.4829 47.9602 0
-33.0331 57.3715 47.7991 0
-30.9724 51.3532 50.8297 0
-32.3636 52.0513 50.2891 0
-28.3015 49.5272 51.697 0
-29.4816 50.7378 51.3738 0
-30.0771 51.2125 50.1773 0
-29.4068 50.9792 49.5205 0
-30.9387 51.1897 48.9708 0
-32.9195 53.1922 48.2394 0
-32.6095 54.3876 47.3822 0
-32.4409 52.7412 49.1554 0
-32.091 52.0747 48.4947 0
-31.5284 51.5528 47.9675 0
-32.4903 53.1455 46.7724 0
-32.4137 55.7431 46.5597 0
-30.5934 51.5632 47.5731 0
-31.8783 52.0259 47.0925 0
-32.1748 52.4986 46.1936 0
-31.4863 52.441 45.9578 0
-31.8518 53.7778 45.6441 0
-27.8709 46.3792 51.5633 0
-27.6832 48.1058 51.7325 0
-30.018 43.7931 50.8614 0
-29.015 44.9657 51.217 0
-28.3502 45.6153 50.6306 0
-28.8614 45.0989 49.8087 0
-27.7927 46.429 49.9761 0
-31.0319 41.4184 49.9786 0
-30.563 42.5908 50.4015 0
-29.4698 38.1928 49.496 0
-30.2282 39.6311 49.8224 0
-30.9194 41.0931 49.3941 0
-30.2184 40.7593 48.8658 0
-31.2257 42.4451 48.9735 0
-30.0206 44.2542 49.5957 0
-29.476 44.8798 49.0836 0
-30.3165 43.4271 50.0131 0
-30.8461 43.3247 49.2371 0
-30.9671 43.2286 48.5563 0
-29.6039 44.2657 48.4487 0
-28.8198 45.3732 48.544 0
-31.091 43.2128 48.0148 0
-30.5025 43.5436 48.208 0
-29.685 43.7566 47.8616 0
-30.1056 43.7239 47.2821 0
-28.8445 44.0513 47.4737 0
-30.1124 52.194 46.507 0
-30.9078 52.4469 45.7307 0
-29.3397 50.9966 47.983 0
-29.4986 51.903 47.3371 0
-28.6767 51.6701 46.7211 0
-27.605 50.4714 46.8876 0
-28.108 51.5667 46.0037 0
-28.3024 49.4695 49.7842 0
-28.7589 50.3997 48.8491 0
-28.0144 48.7163 50.7743 0
-27.7662 47.9546 49.9022 0
-27.7697 47.2314 49.1453 0
-27.3334 49.5162 47.7146 0
-27.0662 48.544 47.1877 0
-28.2116 50.0273 48.2328 0
-27.5623 48.4414 48.4263 0
-27.9651 46.7278 48.5361 0
-27.2638 46.6925 47.4337 0
-26.898 47.6841 46.7256 0
-28.0414 45.9777 48.015 0
-28.0391 45.1842 47.528 0
-28.1686 44.6987 47.0269 0
-30.6178 52.4532 45.3075 0
-31.5822 52.6045 45.0546 0
-27.7479 51.1019 45.407 0
-29.0405 52.4043 45.2355 0
-30.5865 52.2286 44.7443 0
-30.379 51.9892 43.9606 0
-31.8884 51.5853 44.2337 0
-26.6824 47.1473 46.2304 0
-26.5931 49.1056 45.9299 0
-28.5456 44.6302 46.4734 0
-27.4702 45.7303 46.427 0
-26.6737 47.1312 45.7389 0
-28.5656 51.4566 44.2051 0
