#!ascii - generated by CreateLabelFiles project 
6823 13098
984 3920 3921 0
3923 2906 732 0
3922 183 2906 0
3922 2906 3923 0
983 3922 3923 0
3924 3920 984 0
3923 732 3920 0
3923 3920 3924 0
983 3923 3924 0
3926 3924 984 0
3925 983 3924 0
3925 3924 3926 0
249 3925 3926 0
3928 2897 183 0
3927 729 2897 0
3927 2897 3928 0
986 3927 3928 0
3930 2894 729 0
3929 13 2894 0
3929 2894 3930 0
985 3929 3930 0
3931 3927 986 0
3930 729 3927 0
3930 3927 3931 0
985 3930 3931 0
3933 3931 986 0
3932 985 3931 0
3932 3931 3933 0
248 3932 3933 0
3935 3925 249 0
3934 983 3925 0
3934 3925 3935 0
987 3934 3935 0
3936 3922 983 0
3928 183 3922 0
3928 3922 3936 0
986 3928 3936 0
3937 3934 987 0
3936 983 3934 0
3936 3934 3937 0
986 3936 3937 0
3938 3937 987 0
3933 986 3937 0
3933 3937 3938 0
248 3933 3938 0
6607 3935 249 0
3939 987 3935 0
3939 3935 6607 0
6608 3939 6607 0
3941 3938 987 0
3940 248 3938 0
3940 3938 3941 0
988 3940 3941 0
6609 3939 6608 0
3941 987 3939 0
3941 3939 6609 0
988 3941 6609 0
6610 988 6609 0
3942 3917 6602 0
3921 46 3917 0
3921 3917 3942 0
984 3921 3942 0
3943 6611 6612 0
3942 6602 6611 0
3942 6611 3943 0
984 3942 3943 0
6613 3943 6612 0
3926 984 3943 0
3926 3943 6613 0
249 3926 6613 0
249 6613 6614 0
6607 249 6614 0
3945 2765 13 0
3944 696 2765 0
3944 2765 3945 0
990 3944 3945 0
3947 2762 696 0
3946 174 2762 0
3946 2762 3947 0
989 3946 3947 0
3948 3944 990 0
3947 696 3944 0
3947 3944 3948 0
989 3947 3948 0
3950 3948 990 0
3949 989 3948 0
3949 3948 3950 0
251 3949 3950 0
3952 2753 174 0
3951 693 2753 0
3951 2753 3952 0
992 3951 3952 0
3954 2750 693 0
3953 43 2750 0
3953 2750 3954 0
991 3953 3954 0
3955 3951 992 0
3954 693 3951 0
3954 3951 3955 0
991 3954 3955 0
3957 3955 992 0
3956 991 3955 0
3956 3955 3957 0
250 3956 3957 0
3959 3949 251 0
3958 989 3949 0
3958 3949 3959 0
993 3958 3959 0
3960 3946 989 0
3952 174 3946 0
3952 3946 3960 0
992 3952 3960 0
3961 3958 993 0
3960 989 3958 0
3960 3958 3961 0
992 3960 3961 0
3962 3961 993 0
3957 992 3961 0
3957 3961 3962 0
250 3957 3962 0
3964 3959 251 0
3963 993 3959 0
3963 3959 3964 0
995 3963 3964 0
3966 3962 993 0
3965 250 3962 0
3965 3962 3966 0
994 3965 3966 0
3967 3963 995 0
3966 993 3963 0
3966 3963 3967 0
994 3966 3967 0
3969 3967 995 0
3968 994 3967 0
3968 3967 3969 0
62 3968 3969 0
3971 2717 43 0
3970 684 2717 0
3970 2717 3971 0
997 3970 3971 0
3973 2714 684 0
3972 171 2714 0
3972 2714 3973 0
996 3972 3973 0
3974 3970 997 0
3973 684 3970 0
3973 3970 3974 0
996 3973 3974 0
3976 3974 997 0
3975 996 3974 0
3975 3974 3976 0
252 3975 3976 0
3978 2705 171 0
3977 681 2705 0
3977 2705 3978 0
998 3977 3978 0
3979 2702 681 0
3614 1 2702 0
3614 2702 3979 0
909 3614 3979 0
3980 3977 998 0
3979 681 3977 0
3979 3977 3980 0
909 3979 3980 0
3981 3980 998 0
3619 909 3980 0
3619 3980 3981 0
230 3619 3981 0
3983 3975 252 0
3982 996 3975 0
3982 3975 3983 0
999 3982 3983 0
3984 3972 996 0
3978 171 3972 0
3978 3972 3984 0
998 3978 3984 0
3985 3982 999 0
3984 996 3982 0
3984 3982 3985 0
998 3984 3985 0
3986 3985 999 0
3981 998 3985 0
3981 3985 3986 0
230 3981 3986 0
3988 3983 252 0
3987 999 3983 0
3987 3983 3988 0
1000 3987 3988 0
3989 3986 999 0
3633 230 3986 0
3633 3986 3989 0
914 3633 3989 0
3990 3987 1000 0
3989 999 3987 0
3989 3987 3990 0
914 3989 3990 0
3991 3990 1000 0
3638 914 3990 0
3638 3990 3991 0
58 3638 3991 0
3993 3968 62 0
3992 994 3968 0
3992 3968 3993 0
1002 3992 3993 0
3995 3965 994 0
3994 250 3965 0
3994 3965 3995 0
1001 3994 3995 0
3996 3992 1002 0
3995 994 3992 0
3995 3992 3996 0
1001 3995 3996 0
3998 3996 1002 0
3997 1001 3996 0
3997 3996 3998 0
253 3997 3998 0
4000 3956 250 0
3999 991 3956 0
3999 3956 4000 0
1003 3999 4000 0
4001 3953 991 0
3971 43 3953 0
3971 3953 4001 0
997 3971 4001 0
4002 3999 1003 0
4001 991 3999 0
4001 3999 4002 0
997 4001 4002 0
4003 4002 1003 0
3976 997 4002 0
3976 4002 4003 0
252 3976 4003 0
4005 3997 253 0
4004 1001 3997 0
4004 3997 4005 0
1004 4004 4005 0
4006 3994 1001 0
4000 250 3994 0
4000 3994 4006 0
1003 4000 4006 0
4007 4004 1004 0
4006 1001 4004 0
4006 4004 4007 0
1003 4006 4007 0
4008 4007 1004 0
4003 1003 4007 0
4003 4007 4008 0
252 4003 4008 0
4010 4005 253 0
4009 1004 4005 0
4009 4005 4010 0
1005 4009 4010 0
4011 4008 1004 0
3988 252 4008 0
3988 4008 4011 0
1000 3988 4011 0
4012 4009 1005 0
4011 1004 4009 0
4011 4009 4012 0
1000 4011 4012 0
4013 4012 1005 0
3991 1000 4012 0
3991 4012 4013 0
58 3991 4013 0
4015 3993 62 0
4014 1002 3993 0
4014 3993 4015 0
1007 4014 4015 0
4017 3998 1002 0
4016 253 3998 0
4016 3998 4017 0
1006 4016 4017 0
4018 4014 1007 0
4017 1002 4014 0
4017 4014 4018 0
1006 4017 4018 0
4020 4018 1007 0
4019 1006 4018 0
4019 4018 4020 0
254 4019 4020 0
4022 4010 253 0
4021 1005 4010 0
4021 4010 4022 0
1008 4021 4022 0
4023 4013 1005 0
3688 58 4013 0
3688 4013 4023 0
928 3688 4023 0
4024 4021 1008 0
4023 1005 4021 0
4023 4021 4024 0
928 4023 4024 0
4025 4024 1008 0
3693 928 4024 0
3693 4024 4025 0
235 3693 4025 0
4027 4019 254 0
4026 1006 4019 0
4026 4019 4027 0
1009 4026 4027 0
4028 4016 1006 0
4022 253 4016 0
4022 4016 4028 0
1008 4022 4028 0
4029 4026 1009 0
4028 1006 4026 0
4028 4026 4029 0
1008 4028 4029 0
4030 4029 1009 0
4025 1008 4029 0
4025 4029 4030 0
235 4025 4030 0
4032 4027 254 0
4031 1009 4027 0
4031 4027 4032 0
1010 4031 4032 0
4033 4030 1009 0
3707 235 4030 0
3707 4030 4033 0
933 3707 4033 0
4034 4031 1010 0
4033 1009 4031 0
4033 4031 4034 0
933 4033 4034 0
4035 4034 1010 0
3712 933 4034 0
3712 4034 4035 0
17 3712 4035 0
4036 988 6610 0
4036 6610 6615 0
1012 4036 6615 0
4038 3940 988 0
4037 248 3940 0
4037 3940 4038 0
1011 4037 4038 0
4039 4036 1012 0
4038 988 4036 0
4038 4036 4039 0
1011 4038 4039 0
4041 4039 1012 0
4040 1011 4039 0
4040 4039 4041 0
255 4040 4041 0
4043 3932 248 0
4042 985 3932 0
4042 3932 4043 0
1013 4042 4043 0
4044 3929 985 0
3945 13 3929 0
3945 3929 4044 0
990 3945 4044 0
4045 4042 1013 0
4044 985 4042 0
4044 4042 4045 0
990 4044 4045 0
4046 4045 1013 0
3950 990 4045 0
3950 4045 4046 0
251 3950 4046 0
4048 4040 255 0
4047 1011 4040 0
4047 4040 4048 0
1014 4047 4048 0
4049 4037 1011 0
4043 248 4037 0
4043 4037 4049 0
1013 4043 4049 0
4050 4047 1014 0
4049 1011 4047 0
4049 4047 4050 0
1013 4049 4050 0
4051 4050 1014 0
4046 1013 4050 0
4046 4050 4051 0
251 4046 4051 0
4053 4048 255 0
4052 1014 4048 0
4052 4048 4053 0
1015 4052 4053 0
4054 4051 1014 0
3964 251 4051 0
3964 4051 4054 0
995 3964 4054 0
4055 4052 1015 0
4054 1014 4052 0
4054 4052 4055 0
995 4054 4055 0
4056 4055 1015 0
3969 995 4055 0
3969 4055 4056 0
62 3969 4056 0
1017 6616 6617 0
1016 6618 6619 0
4057 6616 1017 0
6619 6616 4057 0
1016 6619 4057 0
4059 4057 1017 0
4058 1016 4057 0
4058 4057 4059 0
256 4058 4059 0
1018 6620 6621 0
1012 6615 6622 0
4060 6620 1018 0
6622 6620 4060 0
1012 6622 4060 0
4061 4060 1018 0
4041 1012 4060 0
4041 4060 4061 0
255 4041 4061 0
4063 4058 256 0
4062 1016 4058 0
4062 4058 4063 0
1019 4062 4063 0
4064 6618 1016 0
6621 6618 4064 0
1018 6621 4064 0
4065 4062 1019 0
4064 1016 4062 0
4064 4062 4065 0
1018 4064 4065 0
4066 4065 1019 0
4061 1018 4065 0
4061 4065 4066 0
255 4061 4066 0
4068 4063 256 0
4067 1019 4063 0
4067 4063 4068 0
1020 4067 4068 0
4069 4066 1019 0
4053 255 4066 0
4053 4066 4069 0
1015 4053 4069 0
4070 4067 1020 0
4069 1019 4067 0
4069 4067 4070 0
1015 4069 4070 0
4071 4070 1020 0
4056 1015 4070 0
4056 4070 4071 0
62 4056 4071 0
4072 1017 6617 0
4072 6617 6623 0
1022 4072 6623 0
4074 4059 1017 0
4073 256 4059 0
4073 4059 4074 0
1021 4073 4074 0
4075 4072 1022 0
4074 1017 4072 0
4074 4072 4075 0
1021 4074 4075 0
4077 4075 1022 0
4076 1021 4075 0
4076 4075 4077 0
257 4076 4077 0
4079 4068 256 0
4078 1020 4068 0
4078 4068 4079 0
1023 4078 4079 0
4080 4071 1020 0
4015 62 4071 0
4015 4071 4080 0
1007 4015 4080 0
4081 4078 1023 0
4080 1020 4078 0
4080 4078 4081 0
1007 4080 4081 0
4082 4081 1023 0
4020 1007 4081 0
4020 4081 4082 0
254 4020 4082 0
4084 4076 257 0
4083 1021 4076 0
4083 4076 4084 0
1024 4083 4084 0
4085 4073 1021 0
4079 256 4073 0
4079 4073 4085 0
1023 4079 4085 0
4086 4083 1024 0
4085 1021 4083 0
4085 4083 4086 0
1023 4085 4086 0
4087 4086 1024 0
4082 1023 4086 0
4082 4086 4087 0
254 4082 4087 0
4089 4084 257 0
4088 1024 4084 0
4088 4084 4089 0
1025 4088 4089 0
4090 4087 1024 0
4032 254 4087 0
4032 4087 4090 0
1010 4032 4090 0
4091 4088 1025 0
4090 1024 4088 0
4090 4088 4091 0
1010 4090 4091 0
4092 4091 1025 0
4035 1010 4091 0
4035 4091 4092 0
17 4035 4092 0
4093 1022 6623 0
4093 6623 6624 0
6625 4093 6624 0
4095 4077 1022 0
4094 257 4077 0
4094 4077 4095 0
1026 4094 4095 0
4096 4093 6625 0
4095 1022 4093 0
4095 4093 4096 0
1026 4095 4096 0
6626 4096 6625 0
4097 1026 4096 0
4097 4096 6626 0
258 4097 6626 0
4099 4089 257 0
4098 1025 4089 0
4098 4089 4099 0
1027 4098 4099 0
4100 4092 1025 0
3863 17 4092 0
3863 4092 4100 0
970 3863 4100 0
4101 4098 1027 0
4100 1025 4098 0
4100 4098 4101 0
970 4100 4101 0
4102 4101 1027 0
3868 970 4101 0
3868 4101 4102 0
246 3868 4102 0
4104 4097 258 0
4103 1026 4097 0
4103 4097 4104 0
1028 4103 4104 0
4105 4094 1026 0
4099 257 4094 0
4099 4094 4105 0
1027 4099 4105 0
4106 4103 1028 0
4105 1026 4103 0
4105 4103 4106 0
1027 4105 4106 0
4107 4106 1028 0
4102 1027 4106 0
4102 4106 4107 0
246 4102 4107 0
4109 4104 258 0
4108 1028 4104 0
4108 4104 4109 0
1029 4108 4109 0
4110 4107 1028 0
3882 246 4107 0
3882 4107 4110 0
975 3882 4110 0
4111 4108 1029 0
4110 1028 4108 0
4110 4108 4111 0
975 4110 4111 0
4112 4111 1029 0
3887 975 4111 0
3887 4111 4112 0
61 3887 4112 0
258 6626 6627 0
4113 6628 6629 0
6627 6628 4113 0
258 6627 4113 0
6630 4113 6629 0
4109 258 4113 0
4109 4113 6630 0
1029 4109 6630 0
1029 6630 6631 0
4112 1029 6631 0
4112 6631 6632 0
61 4112 6632 0
3912 61 6632 0
3912 6632 6633 0
6588 3912 6633 0
6597 4 6596 0
4115 2289 0 0
4114 572 2289 0
4114 2289 4115 0
1031 4114 4115 0
4117 2294 572 0
4116 144 2294 0
4116 2294 4117 0
1030 4116 4117 0
4118 4114 1031 0
4117 572 4114 0
4117 4114 4118 0
1030 4117 4118 0
4120 4118 1031 0
4119 1030 4118 0
4119 4118 4120 0
260 4119 4120 0
4122 2308 144 0
4121 577 2308 0
4121 2308 4122 0
1033 4121 4122 0
4124 2313 577 0
4123 37 2313 0
4123 2313 4124 0
1032 4123 4124 0
4125 4121 1033 0
4124 577 4121 0
4124 4121 4125 0
1032 4124 4125 0
4127 4125 1033 0
4126 1032 4125 0
4126 4125 4127 0
259 4126 4127 0
4129 4119 260 0
4128 1030 4119 0
4128 4119 4129 0
1034 4128 4129 0
4130 4116 1030 0
4122 144 4116 0
4122 4116 4130 0
1033 4122 4130 0
4131 4128 1034 0
4130 1030 4128 0
4130 4128 4131 0
1033 4130 4131 0
4132 4131 1034 0
4127 1033 4131 0
4127 4131 4132 0
259 4127 4132 0
4134 4129 260 0
4133 1034 4129 0
4133 4129 4134 0
1036 4133 4134 0
4136 4132 1034 0
4135 259 4132 0
4135 4132 4136 0
1035 4135 4136 0
4137 4133 1036 0
4136 1034 4133 0
4136 4133 4137 0
1035 4136 4137 0
4139 4137 1036 0
4138 1035 4137 0
4138 4137 4139 0
64 4138 4139 0
4141 2363 37 0
4140 591 2363 0
4140 2363 4141 0
1038 4140 4141 0
4143 2368 591 0
4142 149 2368 0
4142 2368 4143 0
1037 4142 4143 0
4144 4140 1038 0
4143 591 4140 0
4143 4140 4144 0
1037 4143 4144 0
4146 4144 1038 0
4145 1037 4144 0
4145 4144 4146 0
262 4145 4146 0
4148 2382 149 0
4147 596 2382 0
4147 2382 4148 0
1040 4147 4148 0
4150 2387 596 0
4149 12 2387 0
4149 2387 4150 0
1039 4149 4150 0
4151 4147 1040 0
4150 596 4147 0
4150 4147 4151 0
1039 4150 4151 0
4153 4151 1040 0
4152 1039 4151 0
4152 4151 4153 0
261 4152 4153 0
4155 4145 262 0
4154 1037 4145 0
4154 4145 4155 0
1041 4154 4155 0
4156 4142 1037 0
4148 149 4142 0
4148 4142 4156 0
1040 4148 4156 0
4157 4154 1041 0
4156 1037 4154 0
4156 4154 4157 0
1040 4156 4157 0
4158 4157 1041 0
4153 1040 4157 0
4153 4157 4158 0
261 4153 4158 0
4160 4155 262 0
4159 1041 4155 0
4159 4155 4160 0
1043 4159 4160 0
4162 4158 1041 0
4161 261 4158 0
4161 4158 4162 0
1042 4161 4162 0
4163 4159 1043 0
4162 1041 4159 0
4162 4159 4163 0
1042 4162 4163 0
4165 4163 1043 0
4164 1042 4163 0
4164 4163 4165 0
63 4164 4165 0
4167 4138 64 0
4166 1035 4138 0
4166 4138 4167 0
1045 4166 4167 0
4169 4135 1035 0
4168 259 4135 0
4168 4135 4169 0
1044 4168 4169 0
4170 4166 1045 0
4169 1035 4166 0
4169 4166 4170 0
1044 4169 4170 0
4172 4170 1045 0
4171 1044 4170 0
4171 4170 4172 0
263 4171 4172 0
4174 4126 259 0
4173 1032 4126 0
4173 4126 4174 0
1046 4173 4174 0
4175 4123 1032 0
4141 37 4123 0
4141 4123 4175 0
1038 4141 4175 0
4176 4173 1046 0
4175 1032 4173 0
4175 4173 4176 0
1038 4175 4176 0
4177 4176 1046 0
4146 1038 4176 0
4146 4176 4177 0
262 4146 4177 0
4179 4171 263 0
4178 1044 4171 0
4178 4171 4179 0
1047 4178 4179 0
4180 4168 1044 0
4174 259 4168 0
4174 4168 4180 0
1046 4174 4180 0
4181 4178 1047 0
4180 1044 4178 0
4180 4178 4181 0
1046 4180 4181 0
4182 4181 1047 0
4177 1046 4181 0
4177 4181 4182 0
262 4177 4182 0
4184 4179 263 0
4183 1047 4179 0
4183 4179 4184 0
1048 4183 4184 0
4185 4182 1047 0
4160 262 4182 0
4160 4182 4185 0
1043 4160 4185 0
4186 4183 1048 0
4185 1047 4183 0
4185 4183 4186 0
1043 4185 4186 0
4187 4186 1048 0
4165 1043 4186 0
4165 4186 4187 0
63 4165 4187 0
4189 4167 64 0
4188 1045 4167 0
4188 4167 4189 0
1050 4188 4189 0
4191 4172 1045 0
4190 263 4172 0
4190 4172 4191 0
1049 4190 4191 0
4192 4188 1050 0
4191 1045 4188 0
4191 4188 4192 0
1049 4191 4192 0
4194 4192 1050 0
4193 1049 4192 0
4193 4192 4194 0
265 4193 4194 0
4196 4184 263 0
4195 1048 4184 0
4195 4184 4196 0
1052 4195 4196 0
4198 4187 1048 0
4197 63 4187 0
4197 4187 4198 0
1051 4197 4198 0
4199 4195 1052 0
4198 1048 4195 0
4198 4195 4199 0
1051 4198 4199 0
4201 4199 1052 0
4200 1051 4199 0
4200 4199 4201 0
264 4200 4201 0
4203 4193 265 0
4202 1049 4193 0
4202 4193 4203 0
1053 4202 4203 0
4204 4190 1049 0
4196 263 4190 0
4196 4190 4204 0
1052 4196 4204 0
4205 4202 1053 0
4204 1049 4202 0
4204 4202 4205 0
1052 4204 4205 0
4206 4205 1053 0
4201 1052 4205 0
4201 4205 4206 0
264 4201 4206 0
4208 4203 265 0
4207 1053 4203 0
4207 4203 4208 0
1055 4207 4208 0
4210 4206 1053 0
4209 264 4206 0
4209 4206 4210 0
1054 4209 4210 0
4211 4207 1055 0
4210 1053 4207 0
4210 4207 4211 0
1054 4210 4211 0
4213 4211 1055 0
4212 1054 4211 0
4212 4211 4213 0
19 4212 4213 0
4215 2503 12 0
4214 629 2503 0
4214 2503 4215 0
1057 4214 4215 0
4217 2508 629 0
4216 158 2508 0
4216 2508 4217 0
1056 4216 4217 0
4218 4214 1057 0
4217 629 4214 0
4217 4214 4218 0
1056 4217 4218 0
4220 4218 1057 0
4219 1056 4218 0
4219 4218 4220 0
267 4219 4220 0
4222 2522 158 0
4221 634 2522 0
4221 2522 4222 0
1059 4221 4222 0
4224 2527 634 0
4223 40 2527 0
4223 2527 4224 0
1058 4223 4224 0
4225 4221 1059 0
4224 634 4221 0
4224 4221 4225 0
1058 4224 4225 0
4227 4225 1059 0
4226 1058 4225 0
4226 4225 4227 0
266 4226 4227 0
4229 4219 267 0
4228 1056 4219 0
4228 4219 4229 0
1060 4228 4229 0
4230 4216 1056 0
4222 158 4216 0
4222 4216 4230 0
1059 4222 4230 0
4231 4228 1060 0
4230 1056 4228 0
4230 4228 4231 0
1059 4230 4231 0
4232 4231 1060 0
4227 1059 4231 0
4227 4231 4232 0
266 4227 4232 0
4234 4229 267 0
4233 1060 4229 0
4233 4229 4234 0
1062 4233 4234 0
4236 4232 1060 0
4235 266 4232 0
4235 4232 4236 0
1061 4235 4236 0
4237 4233 1062 0
4236 1060 4233 0
4236 4233 4237 0
1061 4236 4237 0
4239 4237 1062 0
4238 1061 4237 0
4238 4237 4239 0
66 4238 4239 0
4241 2577 40 0
4240 648 2577 0
4240 2577 4241 0
1064 4240 4241 0
4243 2582 648 0
4242 163 2582 0
4242 2582 4243 0
1063 4242 4243 0
4244 4240 1064 0
4243 648 4240 0
4243 4240 4244 0
1063 4243 4244 0
4246 4244 1064 0
4245 1063 4244 0
4245 4244 4246 0
269 4245 4246 0
4248 2596 163 0
4247 653 2596 0
4247 2596 4248 0
1066 4247 4248 0
4250 2601 653 0
4249 5 2601 0
4249 2601 4250 0
1065 4249 4250 0
4251 4247 1066 0
4250 653 4247 0
4250 4247 4251 0
1065 4250 4251 0
4253 4251 1066 0
4252 1065 4251 0
4252 4251 4253 0
268 4252 4253 0
4255 4245 269 0
4254 1063 4245 0
4254 4245 4255 0
1067 4254 4255 0
4256 4242 1063 0
4248 163 4242 0
4248 4242 4256 0
1066 4248 4256 0
4257 4254 1067 0
4256 1063 4254 0
4256 4254 4257 0
1066 4256 4257 0
4258 4257 1067 0
4253 1066 4257 0
4253 4257 4258 0
268 4253 4258 0
4260 4255 269 0
4259 1067 4255 0
4259 4255 4260 0
1069 4259 4260 0
4262 4258 1067 0
4261 268 4258 0
4261 4258 4262 0
1068 4261 4262 0
4263 4259 1069 0
4262 1067 4259 0
4262 4259 4263 0
1068 4262 4263 0
4265 4263 1069 0
4264 1068 4263 0
4264 4263 4265 0
65 4264 4265 0
4267 4238 66 0
4266 1061 4238 0
4266 4238 4267 0
1071 4266 4267 0
4269 4235 1061 0
4268 266 4235 0
4268 4235 4269 0
1070 4268 4269 0
4270 4266 1071 0
4269 1061 4266 0
4269 4266 4270 0
1070 4269 4270 0
4272 4270 1071 0
4271 1070 4270 0
4271 4270 4272 0
270 4271 4272 0
4274 4226 266 0
4273 1058 4226 0
4273 4226 4274 0
1072 4273 4274 0
4275 4223 1058 0
4241 40 4223 0
4241 4223 4275 0
1064 4241 4275 0
4276 4273 1072 0
4275 1058 4273 0
4275 4273 4276 0
1064 4275 4276 0
4277 4276 1072 0
4246 1064 4276 0
4246 4276 4277 0
269 4246 4277 0
4279 4271 270 0
4278 1070 4271 0
4278 4271 4279 0
1073 4278 4279 0
4280 4268 1070 0
4274 266 4268 0
4274 4268 4280 0
1072 4274 4280 0
4281 4278 1073 0
4280 1070 4278 0
4280 4278 4281 0
1072 4280 4281 0
4282 4281 1073 0
4277 1072 4281 0
4277 4281 4282 0
269 4277 4282 0
4284 4279 270 0
4283 1073 4279 0
4283 4279 4284 0
1074 4283 4284 0
4285 4282 1073 0
4260 269 4282 0
4260 4282 4285 0
1069 4260 4285 0
4286 4283 1074 0
4285 1073 4283 0
4285 4283 4286 0
1069 4285 4286 0
4287 4286 1074 0
4265 1069 4286 0
4265 4286 4287 0
65 4265 4287 0
4289 4267 66 0
4288 1071 4267 0
4288 4267 4289 0
1076 4288 4289 0
4291 4272 1071 0
4290 270 4272 0
4290 4272 4291 0
1075 4290 4291 0
4292 4288 1076 0
4291 1071 4288 0
4291 4288 4292 0
1075 4291 4292 0
4294 4292 1076 0
4293 1075 4292 0
4293 4292 4294 0
272 4293 4294 0
4296 4284 270 0
4295 1074 4284 0
4295 4284 4296 0
1078 4295 4296 0
4298 4287 1074 0
4297 65 4287 0
4297 4287 4298 0
1077 4297 4298 0
4299 4295 1078 0
4298 1074 4295 0
4298 4295 4299 0
1077 4298 4299 0
4301 4299 1078 0
4300 1077 4299 0
4300 4299 4301 0
271 4300 4301 0
4303 4293 272 0
4302 1075 4293 0
4302 4293 4303 0
1079 4302 4303 0
4304 4290 1075 0
4296 270 4290 0
4296 4290 4304 0
1078 4296 4304 0
4305 4302 1079 0
4304 1075 4302 0
4304 4302 4305 0
1078 4304 4305 0
4306 4305 1079 0
4301 1078 4305 0
4301 4305 4306 0
271 4301 4306 0
4308 4303 272 0
4307 1079 4303 0
4307 4303 4308 0
1081 4307 4308 0
4310 4306 1079 0
4309 271 4306 0
4309 4306 4310 0
1080 4309 4310 0
4311 4307 1081 0
4310 1079 4307 0
4310 4307 4311 0
1080 4310 4311 0
4313 4311 1081 0
4312 1080 4311 0
4312 4311 4313 0
18 4312 4313 0
4315 4212 19 0
4314 1054 4212 0
4314 4212 4315 0
1083 4314 4315 0
4317 4209 1054 0
4316 264 4209 0
4316 4209 4317 0
1082 4316 4317 0
4318 4314 1083 0
4317 1054 4314 0
4317 4314 4318 0
1082 4317 4318 0
4320 4318 1083 0
4319 1082 4318 0
4319 4318 4320 0
274 4319 4320 0
4322 4200 264 0
4321 1051 4200 0
4321 4200 4322 0
1085 4321 4322 0
4324 4197 1051 0
4323 63 4197 0
4323 4197 4324 0
1084 4323 4324 0
4325 4321 1085 0
4324 1051 4321 0
4324 4321 4325 0
1084 4324 4325 0
4327 4325 1085 0
4326 1084 4325 0
4326 4325 4327 0
273 4326 4327 0
4329 4319 274 0
4328 1082 4319 0
4328 4319 4329 0
1086 4328 4329 0
4330 4316 1082 0
4322 264 4316 0
4322 4316 4330 0
1085 4322 4330 0
4331 4328 1086 0
4330 1082 4328 0
4330 4328 4331 0
1085 4330 4331 0
4332 4331 1086 0
4327 1085 4331 0
4327 4331 4332 0
273 4327 4332 0
4334 4329 274 0
4333 1086 4329 0
4333 4329 4334 0
1088 4333 4334 0
4336 4332 1086 0
4335 273 4332 0
4335 4332 4336 0
1087 4335 4336 0
4337 4333 1088 0
4336 1086 4333 0
4336 4333 4337 0
1087 4336 4337 0
4339 4337 1088 0
4338 1087 4337 0
4338 4337 4339 0
67 4338 4339 0
4341 4164 63 0
4340 1042 4164 0
4340 4164 4341 0
1090 4340 4341 0
4343 4161 1042 0
4342 261 4161 0
4342 4161 4343 0
1089 4342 4343 0
4344 4340 1090 0
4343 1042 4340 0
4343 4340 4344 0
1089 4343 4344 0
4346 4344 1090 0
4345 1089 4344 0
4345 4344 4346 0
275 4345 4346 0
4348 4152 261 0
4347 1039 4152 0
4347 4152 4348 0
1091 4347 4348 0
4349 4149 1039 0
4215 12 4149 0
4215 4149 4349 0
1057 4215 4349 0
4350 4347 1091 0
4349 1039 4347 0
4349 4347 4350 0
1057 4349 4350 0
4351 4350 1091 0
4220 1057 4350 0
4220 4350 4351 0
267 4220 4351 0
4353 4345 275 0
4352 1089 4345 0
4352 4345 4353 0
1092 4352 4353 0
4354 4342 1089 0
4348 261 4342 0
4348 4342 4354 0
1091 4348 4354 0
4355 4352 1092 0
4354 1089 4352 0
4354 4352 4355 0
1091 4354 4355 0
4356 4355 1092 0
4351 1091 4355 0
4351 4355 4356 0
267 4351 4356 0
4358 4353 275 0
4357 1092 4353 0
4357 4353 4358 0
1093 4357 4358 0
4359 4356 1092 0
4234 267 4356 0
4234 4356 4359 0
1062 4234 4359 0
4360 4357 1093 0
4359 1092 4357 0
4359 4357 4360 0
1062 4359 4360 0
4361 4360 1093 0
4239 1062 4360 0
4239 4360 4361 0
66 4239 4361 0
4363 4338 67 0
4362 1087 4338 0
4362 4338 4363 0
1095 4362 4363 0
4365 4335 1087 0
4364 273 4335 0
4364 4335 4365 0
1094 4364 4365 0
4366 4362 1095 0
4365 1087 4362 0
4365 4362 4366 0
1094 4365 4366 0
4368 4366 1095 0
4367 1094 4366 0
4367 4366 4368 0
276 4367 4368 0
4370 4326 273 0
4369 1084 4326 0
4369 4326 4370 0
1096 4369 4370 0
4371 4323 1084 0
4341 63 4323 0
4341 4323 4371 0
1090 4341 4371 0
4372 4369 1096 0
4371 1084 4369 0
4371 4369 4372 0
1090 4371 4372 0
4373 4372 1096 0
4346 1090 4372 0
4346 4372 4373 0
275 4346 4373 0
4375 4367 276 0
4374 1094 4367 0
4374 4367 4375 0
1097 4374 4375 0
4376 4364 1094 0
4370 273 4364 0
4370 4364 4376 0
1096 4370 4376 0
4377 4374 1097 0
4376 1094 4374 0
4376 4374 4377 0
1096 4376 4377 0
4378 4377 1097 0
4373 1096 4377 0
4373 4377 4378 0
275 4373 4378 0
4380 4375 276 0
4379 1097 4375 0
4379 4375 4380 0
1098 4379 4380 0
4381 4378 1097 0
4358 275 4378 0
4358 4378 4381 0
1093 4358 4381 0
4382 4379 1098 0
4381 1097 4379 0
4381 4379 4382 0
1093 4381 4382 0
4383 4382 1098 0
4361 1093 4382 0
4361 4382 4383 0
66 4361 4383 0
4385 4363 67 0
4384 1095 4363 0
4384 4363 4385 0
1100 4384 4385 0
4387 4368 1095 0
4386 276 4368 0
4386 4368 4387 0
1099 4386 4387 0
4388 4384 1100 0
4387 1095 4384 0
4387 4384 4388 0
1099 4387 4388 0
4390 4388 1100 0
4389 1099 4388 0
4389 4388 4390 0
277 4389 4390 0
4392 4380 276 0
4391 1098 4380 0
4391 4380 4392 0
1101 4391 4392 0
4393 4383 1098 0
4289 66 4383 0
4289 4383 4393 0
1076 4289 4393 0
4394 4391 1101 0
4393 1098 4391 0
4393 4391 4394 0
1076 4393 4394 0
4395 4394 1101 0
4294 1076 4394 0
4294 4394 4395 0
272 4294 4395 0
4397 4389 277 0
4396 1099 4389 0
4396 4389 4397 0
1102 4396 4397 0
4398 4386 1099 0
4392 276 4386 0
4392 4386 4398 0
1101 4392 4398 0
4399 4396 1102 0
4398 1099 4396 0
4398 4396 4399 0
1101 4398 4399 0
4400 4399 1102 0
4395 1101 4399 0
4395 4399 4400 0
272 4395 4400 0
4402 4397 277 0
4401 1102 4397 0
4401 4397 4402 0
1103 4401 4402 0
4403 4400 1102 0
4308 272 4400 0
4308 4400 4403 0
1081 4308 4403 0
4404 4401 1103 0
4403 1102 4401 0
4403 4401 4404 0
1081 4403 4404 0
4405 4404 1103 0
4313 1081 4404 0
4313 4404 4405 0
18 4313 4405 0
4407 4315 19 0
4406 1083 4315 0
4406 4315 4407 0
1105 4406 4407 0
4409 4320 1083 0
4408 274 4320 0
4408 4320 4409 0
1104 4408 4409 0
4410 4406 1105 0
4409 1083 4406 0
4409 4406 4410 0
1104 4409 4410 0
4412 4410 1105 0
4411 1104 4410 0
4411 4410 4412 0
279 4411 4412 0
4414 4334 274 0
4413 1088 4334 0
4413 4334 4414 0
1107 4413 4414 0
4416 4339 1088 0
4415 67 4339 0
4415 4339 4416 0
1106 4415 4416 0
4417 4413 1107 0
4416 1088 4413 0
4416 4413 4417 0
1106 4416 4417 0
4419 4417 1107 0
4418 1106 4417 0
4418 4417 4419 0
278 4418 4419 0
4421 4411 279 0
4420 1104 4411 0
4420 4411 4421 0
1108 4420 4421 0
4422 4408 1104 0
4414 274 4408 0
4414 4408 4422 0
1107 4414 4422 0
4423 4420 1108 0
4422 1104 4420 0
4422 4420 4423 0
1107 4422 4423 0
4424 4423 1108 0
4419 1107 4423 0
4419 4423 4424 0
278 4419 4424 0
4426 4421 279 0
4425 1108 4421 0
4425 4421 4426 0
1110 4425 4426 0
4428 4424 1108 0
4427 278 4424 0
4427 4424 4428 0
1109 4427 4428 0
4429 4425 1110 0
4428 1108 4425 0
4428 4425 4429 0
1109 4428 4429 0
4431 4429 1110 0
4430 1109 4429 0
4430 4429 4431 0
69 4430 4431 0
4433 4385 67 0
4432 1100 4385 0
4432 4385 4433 0
1112 4432 4433 0
4435 4390 1100 0
4434 277 4390 0
4434 4390 4435 0
1111 4434 4435 0
4436 4432 1112 0
4435 1100 4432 0
4435 4432 4436 0
1111 4435 4436 0
4438 4436 1112 0
4437 1111 4436 0
4437 4436 4438 0
281 4437 4438 0
4440 4402 277 0
4439 1103 4402 0
4439 4402 4440 0
1114 4439 4440 0
4442 4405 1103 0
4441 18 4405 0
4441 4405 4442 0
1113 4441 4442 0
4443 4439 1114 0
4442 1103 4439 0
4442 4439 4443 0
1113 4442 4443 0
4445 4443 1114 0
4444 1113 4443 0
4444 4443 4445 0
280 4444 4445 0
4447 4437 281 0
4446 1111 4437 0
4446 4437 4447 0
1115 4446 4447 0
4448 4434 1111 0
4440 277 4434 0
4440 4434 4448 0
1114 4440 4448 0
4449 4446 1115 0
4448 1111 4446 0
4448 4446 4449 0
1114 4448 4449 0
4450 4449 1115 0
4445 1114 4449 0
4445 4449 4450 0
280 4445 4450 0
4452 4447 281 0
4451 1115 4447 0
4451 4447 4452 0
1117 4451 4452 0
4454 4450 1115 0
4453 280 4450 0
4453 4450 4454 0
1116 4453 4454 0
4455 4451 1117 0
4454 1115 4451 0
4454 4451 4455 0
1116 4454 4455 0
4457 4455 1117 0
4456 1116 4455 0
4456 4455 4457 0
68 4456 4457 0
4459 4430 69 0
4458 1109 4430 0
4458 4430 4459 0
1119 4458 4459 0
4461 4427 1109 0
4460 278 4427 0
4460 4427 4461 0
1118 4460 4461 0
4462 4458 1119 0
4461 1109 4458 0
4461 4458 4462 0
1118 4461 4462 0
4464 4462 1119 0
4463 1118 4462 0
4463 4462 4464 0
282 4463 4464 0
4466 4418 278 0
4465 1106 4418 0
4465 4418 4466 0
1120 4465 4466 0
4467 4415 1106 0
4433 67 4415 0
4433 4415 4467 0
1112 4433 4467 0
4468 4465 1120 0
4467 1106 4465 0
4467 4465 4468 0
1112 4467 4468 0
4469 4468 1120 0
4438 1112 4468 0
4438 4468 4469 0
281 4438 4469 0
4471 4463 282 0
4470 1118 4463 0
4470 4463 4471 0
1121 4470 4471 0
4472 4460 1118 0
4466 278 4460 0
4466 4460 4472 0
1120 4466 4472 0
4473 4470 1121 0
4472 1118 4470 0
4472 4470 4473 0
1120 4472 4473 0
4474 4473 1121 0
4469 1120 4473 0
4469 4473 4474 0
281 4469 4474 0
4476 4471 282 0
4475 1121 4471 0
4475 4471 4476 0
1122 4475 4476 0
4477 4474 1121 0
4452 281 4474 0
4452 4474 4477 0
1117 4452 4477 0
4478 4475 1122 0
4477 1121 4475 0
4477 4475 4478 0
1117 4477 4478 0
4479 4478 1122 0
4457 1117 4478 0
4457 4478 4479 0
68 4457 4479 0
4481 4459 69 0
4480 1119 4459 0
4480 4459 4481 0
1124 4480 4481 0
4483 4464 1119 0
4482 282 4464 0
4482 4464 4483 0
1123 4482 4483 0
4484 4480 1124 0
4483 1119 4480 0
4483 4480 4484 0
1123 4483 4484 0
4486 4484 1124 0
4485 1123 4484 0
4485 4484 4486 0
284 4485 4486 0
4488 4476 282 0
4487 1122 4476 0
4487 4476 4488 0
1126 4487 4488 0
4490 4479 1122 0
4489 68 4479 0
4489 4479 4490 0
1125 4489 4490 0
4491 4487 1126 0
4490 1122 4487 0
4490 4487 4491 0
1125 4490 4491 0
4493 4491 1126 0
4492 1125 4491 0
4492 4491 4493 0
283 4492 4493 0
4495 4485 284 0
4494 1123 4485 0
4494 4485 4495 0
1127 4494 4495 0
4496 4482 1123 0
4488 282 4482 0
4488 4482 4496 0
1126 4488 4496 0
4497 4494 1127 0
4496 1123 4494 0
4496 4494 4497 0
1126 4496 4497 0
4498 4497 1127 0
4493 1126 4497 0
4493 4497 4498 0
283 4493 4498 0
4500 4495 284 0
4499 1127 4495 0
4499 4495 4500 0
1129 4499 4500 0
4502 4498 1127 0
4501 283 4498 0
4501 4498 4502 0
1128 4501 4502 0
4503 4499 1129 0
4502 1127 4499 0
4502 4499 4503 0
1128 4502 4503 0
4505 4503 1129 0
4504 1128 4503 0
4504 4503 4505 0
6 4504 4505 0
4507 3303 5 0
4506 830 3303 0
4506 3303 4507 0
1131 4506 4507 0
4509 3308 830 0
4508 210 3308 0
4508 3308 4509 0
1130 4508 4509 0
4510 4506 1131 0
4509 830 4506 0
4509 4506 4510 0
1130 4509 4510 0
4512 4510 1131 0
4511 1130 4510 0
4511 4510 4512 0
286 4511 4512 0
4514 3322 210 0
4513 835 3322 0
4513 3322 4514 0
1133 4513 4514 0
4516 3327 835 0
4515 54 3327 0
4515 3327 4516 0
1132 4515 4516 0
4517 4513 1133 0
4516 835 4513 0
4516 4513 4517 0
1132 4516 4517 0
4519 4517 1133 0
4518 1132 4517 0
4518 4517 4519 0
285 4518 4519 0
4521 4511 286 0
4520 1130 4511 0
4520 4511 4521 0
1134 4520 4521 0
4522 4508 1130 0
4514 210 4508 0
4514 4508 4522 0
1133 4514 4522 0
4523 4520 1134 0
4522 1130 4520 0
4522 4520 4523 0
1133 4522 4523 0
4524 4523 1134 0
4519 1133 4523 0
4519 4523 4524 0
285 4519 4524 0
4526 4521 286 0
4525 1134 4521 0
4525 4521 4526 0
1136 4525 4526 0
4528 4524 1134 0
4527 285 4524 0
4527 4524 4528 0
1135 4527 4528 0
4529 4525 1136 0
4528 1134 4525 0
4528 4525 4529 0
1135 4528 4529 0
4531 4529 1136 0
4530 1135 4529 0
4530 4529 4531 0
71 4530 4531 0
4533 3377 54 0
4532 849 3377 0
4532 3377 4533 0
1138 4532 4533 0
4535 3382 849 0
4534 215 3382 0
4534 3382 4535 0
1137 4534 4535 0
4536 4532 1138 0
4535 849 4532 0
4535 4532 4536 0
1137 4535 4536 0
4538 4536 1138 0
4537 1137 4536 0
4537 4536 4538 0
288 4537 4538 0
4540 3396 215 0
4539 854 3396 0
4539 3396 4540 0
1140 4539 4540 0
4542 3401 854 0
4541 16 3401 0
4541 3401 4542 0
1139 4541 4542 0
4543 4539 1140 0
4542 854 4539 0
4542 4539 4543 0
1139 4542 4543 0
4545 4543 1140 0
4544 1139 4543 0
4544 4543 4545 0
287 4544 4545 0
4547 4537 288 0
4546 1137 4537 0
4546 4537 4547 0
1141 4546 4547 0
4548 4534 1137 0
4540 215 4534 0
4540 4534 4548 0
1140 4540 4548 0
4549 4546 1141 0
4548 1137 4546 0
4548 4546 4549 0
1140 4548 4549 0
4550 4549 1141 0
4545 1140 4549 0
4545 4549 4550 0
287 4545 4550 0
4552 4547 288 0
4551 1141 4547 0
4551 4547 4552 0
1143 4551 4552 0
4554 4550 1141 0
4553 287 4550 0
4553 4550 4554 0
1142 4553 4554 0
4555 4551 1143 0
4554 1141 4551 0
4554 4551 4555 0
1142 4554 4555 0
4557 4555 1143 0
4556 1142 4555 0
4556 4555 4557 0
70 4556 4557 0
4559 4530 71 0
4558 1135 4530 0
4558 4530 4559 0
1145 4558 4559 0
4561 4527 1135 0
4560 285 4527 0
4560 4527 4561 0
1144 4560 4561 0
4562 4558 1145 0
4561 1135 4558 0
4561 4558 4562 0
1144 4561 4562 0
4564 4562 1145 0
4563 1144 4562 0
4563 4562 4564 0
289 4563 4564 0
4566 4518 285 0
4565 1132 4518 0
4565 4518 4566 0
1146 4565 4566 0
4567 4515 1132 0
4533 54 4515 0
4533 4515 4567 0
1138 4533 4567 0
4568 4565 1146 0
4567 1132 4565 0
4567 4565 4568 0
1138 4567 4568 0
4569 4568 1146 0
4538 1138 4568 0
4538 4568 4569 0
288 4538 4569 0
4571 4563 289 0
4570 1144 4563 0
4570 4563 4571 0
1147 4570 4571 0
4572 4560 1144 0
4566 285 4560 0
4566 4560 4572 0
1146 4566 4572 0
4573 4570 1147 0
4572 1144 4570 0
4572 4570 4573 0
1146 4572 4573 0
4574 4573 1147 0
4569 1146 4573 0
4569 4573 4574 0
288 4569 4574 0
4576 4571 289 0
4575 1147 4571 0
4575 4571 4576 0
1148 4575 4576 0
4577 4574 1147 0
4552 288 4574 0
4552 4574 4577 0
1143 4552 4577 0
4578 4575 1148 0
4577 1147 4575 0
4577 4575 4578 0
1143 4577 4578 0
4579 4578 1148 0
4557 1143 4578 0
4557 4578 4579 0
70 4557 4579 0
4581 4559 71 0
4580 1145 4559 0
4580 4559 4581 0
1150 4580 4581 0
4583 4564 1145 0
4582 289 4564 0
4582 4564 4583 0
1149 4582 4583 0
4584 4580 1150 0
4583 1145 4580 0
4583 4580 4584 0
1149 4583 4584 0
4586 4584 1150 0
4585 1149 4584 0
4585 4584 4586 0
291 4585 4586 0
4588 4576 289 0
4587 1148 4576 0
4587 4576 4588 0
1152 4587 4588 0
4590 4579 1148 0
4589 70 4579 0
4589 4579 4590 0
1151 4589 4590 0
4591 4587 1152 0
4590 1148 4587 0
4590 4587 4591 0
1151 4590 4591 0
4593 4591 1152 0
4592 1151 4591 0
4592 4591 4593 0
290 4592 4593 0
4595 4585 291 0
4594 1149 4585 0
4594 4585 4595 0
1153 4594 4595 0
4596 4582 1149 0
4588 289 4582 0
4588 4582 4596 0
1152 4588 4596 0
4597 4594 1153 0
4596 1149 4594 0
4596 4594 4597 0
1152 4596 4597 0
4598 4597 1153 0
4593 1152 4597 0
4593 4597 4598 0
290 4593 4598 0
4600 4595 291 0
4599 1153 4595 0
4599 4595 4600 0
1155 4599 4600 0
4602 4598 1153 0
4601 290 4598 0
4601 4598 4602 0
1154 4601 4602 0
4603 4599 1155 0
4602 1153 4599 0
4602 4599 4603 0
1154 4602 4603 0
4605 4603 1155 0
4604 1154 4603 0
4604 4603 4605 0
20 4604 4605 0
4607 3576 16 0
4606 899 3576 0
4606 3576 4607 0
1157 4606 4607 0
4609 3581 899 0
4608 228 3581 0
4608 3581 4609 0
1156 4608 4609 0
4610 4606 1157 0
4609 899 4606 0
4609 4606 4610 0
1156 4609 4610 0
4612 4610 1157 0
4611 1156 4610 0
4611 4610 4612 0
292 4611 4612 0
4614 3595 228 0
4613 904 3595 0
4613 3595 4614 0
1158 4613 4614 0
4615 3599 904 0
6634 6545 3599 0
6634 3599 4615 0
6635 6634 4615 0
4616 4613 1158 0
4615 904 4613 0
4615 4613 4616 0
6635 4615 4616 0
6636 4616 1158 0
6637 6635 4616 0
6637 4616 6636 0
4618 4611 292 0
4617 1156 4611 0
4617 4611 4618 0
1159 4617 4618 0
4619 4608 1156 0
4614 228 4608 0
4614 4608 4619 0
1158 4614 4619 0
4620 4617 1159 0
4619 1156 4617 0
4619 4617 4620 0
1158 4619 4620 0
4621 4620 1159 0
6636 1158 4620 0
6636 4620 4621 0
6638 6636 4621 0
4623 4618 292 0
4622 1159 4618 0
4622 4618 4623 0
1160 4622 4623 0
6639 4621 1159 0
6640 6638 4621 0
6640 4621 6639 0
4624 4622 1160 0
6639 1159 4622 0
6639 4622 4624 0
6641 6639 4624 0
4625 4624 1160 0
6642 6641 4624 0
6642 4624 4625 0
6643 6642 4625 0
4627 4604 20 0
4626 1154 4604 0
4626 4604 4627 0
1162 4626 4627 0
4629 4601 1154 0
4628 290 4601 0
4628 4601 4629 0
1161 4628 4629 0
4630 4626 1162 0
4629 1154 4626 0
4629 4626 4630 0
1161 4629 4630 0
4632 4630 1162 0
4631 1161 4630 0
4631 4630 4632 0
294 4631 4632 0
4634 4592 290 0
4633 1151 4592 0
4633 4592 4634 0
1164 4633 4634 0
4636 4589 1151 0
4635 70 4589 0
4635 4589 4636 0
1163 4635 4636 0
4637 4633 1164 0
4636 1151 4633 0
4636 4633 4637 0
1163 4636 4637 0
4639 4637 1164 0
4638 1163 4637 0
4638 4637 4639 0
293 4638 4639 0
4641 4631 294 0
4640 1161 4631 0
4640 4631 4641 0
1165 4640 4641 0
4642 4628 1161 0
4634 290 4628 0
4634 4628 4642 0
1164 4634 4642 0
4643 4640 1165 0
4642 1161 4640 0
4642 4640 4643 0
1164 4642 4643 0
4644 4643 1165 0
4639 1164 4643 0
4639 4643 4644 0
293 4639 4644 0
4646 4641 294 0
4645 1165 4641 0
4645 4641 4646 0
1167 4645 4646 0
4648 4644 1165 0
4647 293 4644 0
4647 4644 4648 0
1166 4647 4648 0
4649 4645 1167 0
4648 1165 4645 0
4648 4645 4649 0
1166 4648 4649 0
4651 4649 1167 0
4650 1166 4649 0
4650 4649 4651 0
72 4650 4651 0
4653 4556 70 0
4652 1142 4556 0
4652 4556 4653 0
1169 4652 4653 0
4655 4553 1142 0
4654 287 4553 0
4654 4553 4655 0
1168 4654 4655 0
4656 4652 1169 0
4655 1142 4652 0
4655 4652 4656 0
1168 4655 4656 0
4658 4656 1169 0
4657 1168 4656 0
4657 4656 4658 0
295 4657 4658 0
4660 4544 287 0
4659 1139 4544 0
4659 4544 4660 0
1170 4659 4660 0
4661 4541 1139 0
4607 16 4541 0
4607 4541 4661 0
1157 4607 4661 0
4662 4659 1170 0
4661 1139 4659 0
4661 4659 4662 0
1157 4661 4662 0
4663 4662 1170 0
4612 1157 4662 0
4612 4662 4663 0
292 4612 4663 0
4665 4657 295 0
4664 1168 4657 0
4664 4657 4665 0
1171 4664 4665 0
4666 4654 1168 0
4660 287 4654 0
4660 4654 4666 0
1170 4660 4666 0
4667 4664 1171 0
4666 1168 4664 0
4666 4664 4667 0
1170 4666 4667 0
4668 4667 1171 0
4663 1170 4667 0
4663 4667 4668 0
292 4663 4668 0
4670 4665 295 0
4669 1171 4665 0
4669 4665 4670 0
1172 4669 4670 0
4671 4668 1171 0
4623 292 4668 0
4623 4668 4671 0
1160 4623 4671 0
4672 4669 1172 0
4671 1171 4669 0
4671 4669 4672 0
1160 4671 4672 0
4673 4672 1172 0
4625 1160 4672 0
4625 4672 4673 0
6643 4625 4673 0
4675 4650 72 0
4674 1166 4650 0
4674 4650 4675 0
6644 4674 4675 0
4677 4647 1166 0
4676 293 4647 0
4676 4647 4677 0
1173 4676 4677 0
4678 4674 6644 0
4677 1166 4674 0
4677 4674 4678 0
1173 4677 4678 0
6645 4678 6644 0
4679 1173 4678 0
4679 4678 6645 0
296 4679 6645 0
4681 4638 293 0
4680 1163 4638 0
4680 4638 4681 0
1174 4680 4681 0
4682 4635 1163 0
4653 70 4635 0
4653 4635 4682 0
1169 4653 4682 0
4683 4680 1174 0
4682 1163 4680 0
4682 4680 4683 0
1169 4682 4683 0
4684 4683 1174 0
4658 1169 4683 0
4658 4683 4684 0
295 4658 4684 0
4686 4679 296 0
4685 1173 4679 0
4685 4679 4686 0
1175 4685 4686 0
4687 4676 1173 0
4681 293 4676 0
4681 4676 4687 0
1174 4681 4687 0
4688 4685 1175 0
4687 1173 4685 0
4687 4685 4688 0
1174 4687 4688 0
4689 4688 1175 0
4684 1174 4688 0
4684 4688 4689 0
295 4684 4689 0
6646 4686 296 0
4690 1175 4686 0
4690 4686 6646 0
1176 4690 6646 0
4691 4689 1175 0
4670 295 4689 0
4670 4689 4691 0
1172 4670 4691 0
4692 4690 1176 0
4691 1175 4690 0
4691 4690 4692 0
1172 4691 4692 0
6647 4692 1176 0
4673 1172 4692 0
4673 4692 6647 0
6643 4673 6647 0
6648 4675 72 0
6649 6644 4675 0
6649 4675 6648 0
6650 296 6645 0
6651 6646 296 0
6652 1176 6646 0
6653 6647 1176 0
6653 1176 6652 0
6651 296 6650 0
4694 4627 20 0
4693 1162 4627 0
4693 4627 4694 0
1178 4693 4694 0
4696 4632 1162 0
4695 294 4632 0
4695 4632 4696 0
1177 4695 4696 0
4697 4693 1178 0
4696 1162 4693 0
4696 4693 4697 0
1177 4696 4697 0
4699 4697 1178 0
4698 1177 4697 0
4698 4697 4699 0
297 4698 4699 0
4701 4646 294 0
4700 1167 4646 0
4700 4646 4701 0
1180 4700 4701 0
4702 4651 1167 0
6654 72 4651 0
6654 4651 4702 0
1179 6654 4702 0
4703 4700 1180 0
4702 1167 4700 0
4702 4700 4703 0
1179 4702 4703 0
4704 4703 1180 0
6655 1179 4703 0
6655 4703 4704 0
6656 6655 4704 0
4706 4698 297 0
4705 1177 4698 0
4705 4698 4706 0
1181 4705 4706 0
4707 4695 1177 0
4701 294 4695 0
4701 4695 4707 0
1180 4701 4707 0
4708 4705 1181 0
4707 1177 4705 0
4707 4705 4708 0
1180 4707 4708 0
4709 4708 1181 0
4704 1180 4708 0
4704 4708 4709 0
6656 4704 4709 0
4711 4706 297 0
4710 1181 4706 0
4710 4706 4711 0
1183 4710 4711 0
4712 4709 1181 0
6657 6656 4709 0
6657 4709 4712 0
1182 6657 4712 0
4713 4710 1183 0
4712 1181 4710 0
4712 4710 4713 0
1182 4712 4713 0
4715 4713 1183 0
4714 1182 4713 0
4714 4713 4715 0
6658 4714 4715 0
6659 6648 72 0
6660 4714 6658 0
6661 1182 4714 0
6661 4714 6660 0
6662 6657 1182 0
6662 1182 6661 0
6663 1179 6655 0
6664 6654 1179 0
6659 72 6654 0
6664 1179 6663 0
4717 4504 6 0
4716 1128 4504 0
4716 4504 4717 0
1185 4716 4717 0
4719 4501 1128 0
4718 283 4501 0
4718 4501 4719 0
1184 4718 4719 0
4720 4716 1185 0
4719 1128 4716 0
4719 4716 4720 0
1184 4719 4720 0
4722 4720 1185 0
4721 1184 4720 0
4721 4720 4722 0
299 4721 4722 0
4724 4492 283 0
4723 1125 4492 0
4723 4492 4724 0
1187 4723 4724 0
4726 4489 1125 0
4725 68 4489 0
4725 4489 4726 0
1186 4725 4726 0
4727 4723 1187 0
4726 1125 4723 0
4726 4723 4727 0
1186 4726 4727 0
4729 4727 1187 0
4728 1186 4727 0
4728 4727 4729 0
298 4728 4729 0
4731 4721 299 0
4730 1184 4721 0
4730 4721 4731 0
1188 4730 4731 0
4732 4718 1184 0
4724 283 4718 0
4724 4718 4732 0
1187 4724 4732 0
4733 4730 1188 0
4732 1184 4730 0
4732 4730 4733 0
1187 4732 4733 0
4734 4733 1188 0
4729 1187 4733 0
4729 4733 4734 0
298 4729 4734 0
4736 4731 299 0
4735 1188 4731 0
4735 4731 4736 0
1190 4735 4736 0
4738 4734 1188 0
4737 298 4734 0
4737 4734 4738 0
1189 4737 4738 0
4739 4735 1190 0
4738 1188 4735 0
4738 4735 4739 0
1189 4738 4739 0
4741 4739 1190 0
4740 1189 4739 0
4740 4739 4741 0
74 4740 4741 0
4743 4456 68 0
4742 1116 4456 0
4742 4456 4743 0
1192 4742 4743 0
4745 4453 1116 0
4744 280 4453 0
4744 4453 4745 0
1191 4744 4745 0
4746 4742 1192 0
4745 1116 4742 0
4745 4742 4746 0
1191 4745 4746 0
4748 4746 1192 0
4747 1191 4746 0
4747 4746 4748 0
301 4747 4748 0
4750 4444 280 0
4749 1113 4444 0
4749 4444 4750 0
1194 4749 4750 0
4752 4441 1113 0
4751 18 4441 0
4751 4441 4752 0
1193 4751 4752 0
4753 4749 1194 0
4752 1113 4749 0
4752 4749 4753 0
1193 4752 4753 0
4755 4753 1194 0
4754 1193 4753 0
4754 4753 4755 0
300 4754 4755 0
4757 4747 301 0
4756 1191 4747 0
4756 4747 4757 0
1195 4756 4757 0
4758 4744 1191 0
4750 280 4744 0
4750 4744 4758 0
1194 4750 4758 0
4759 4756 1195 0
4758 1191 4756 0
4758 4756 4759 0
1194 4758 4759 0
4760 4759 1195 0
4755 1194 4759 0
4755 4759 4760 0
300 4755 4760 0
4762 4757 301 0
4761 1195 4757 0
4761 4757 4762 0
1197 4761 4762 0
4764 4760 1195 0
4763 300 4760 0
4763 4760 4764 0
1196 4763 4764 0
4765 4761 1197 0
4764 1195 4761 0
4764 4761 4765 0
1196 4764 4765 0
4767 4765 1197 0
4766 1196 4765 0
4766 4765 4767 0
73 4766 4767 0
4769 4740 74 0
4768 1189 4740 0
4768 4740 4769 0
1199 4768 4769 0
4771 4737 1189 0
4770 298 4737 0
4770 4737 4771 0
1198 4770 4771 0
4772 4768 1199 0
4771 1189 4768 0
4771 4768 4772 0
1198 4771 4772 0
4774 4772 1199 0
4773 1198 4772 0
4773 4772 4774 0
302 4773 4774 0
4776 4728 298 0
4775 1186 4728 0
4775 4728 4776 0
1200 4775 4776 0
4777 4725 1186 0
4743 68 4725 0
4743 4725 4777 0
1192 4743 4777 0
4778 4775 1200 0
4777 1186 4775 0
4777 4775 4778 0
1192 4777 4778 0
4779 4778 1200 0
4748 1192 4778 0
4748 4778 4779 0
301 4748 4779 0
4781 4773 302 0
4780 1198 4773 0
4780 4773 4781 0
1201 4780 4781 0
4782 4770 1198 0
4776 298 4770 0
4776 4770 4782 0
1200 4776 4782 0
4783 4780 1201 0
4782 1198 4780 0
4782 4780 4783 0
1200 4782 4783 0
4784 4783 1201 0
4779 1200 4783 0
4779 4783 4784 0
301 4779 4784 0
4786 4781 302 0
4785 1201 4781 0
4785 4781 4786 0
1202 4785 4786 0
4787 4784 1201 0
4762 301 4784 0
4762 4784 4787 0
1197 4762 4787 0
4788 4785 1202 0
4787 1201 4785 0
4787 4785 4788 0
1197 4787 4788 0
4789 4788 1202 0
4767 1197 4788 0
4767 4788 4789 0
73 4767 4789 0
4791 4769 74 0
4790 1199 4769 0
4790 4769 4791 0
1204 4790 4791 0
4793 4774 1199 0
4792 302 4774 0
4792 4774 4793 0
1203 4792 4793 0
4794 4790 1204 0
4793 1199 4790 0
4793 4790 4794 0
1203 4793 4794 0
4796 4794 1204 0
4795 1203 4794 0
4795 4794 4796 0
304 4795 4796 0
4798 4786 302 0
4797 1202 4786 0
4797 4786 4798 0
1206 4797 4798 0
4800 4789 1202 0
4799 73 4789 0
4799 4789 4800 0
1205 4799 4800 0
4801 4797 1206 0
4800 1202 4797 0
4800 4797 4801 0
1205 4800 4801 0
4803 4801 1206 0
4802 1205 4801 0
4802 4801 4803 0
303 4802 4803 0
4805 4795 304 0
4804 1203 4795 0
4804 4795 4805 0
1207 4804 4805 0
4806 4792 1203 0
4798 302 4792 0
4798 4792 4806 0
1206 4798 4806 0
4807 4804 1207 0
4806 1203 4804 0
4806 4804 4807 0
1206 4806 4807 0
4808 4807 1207 0
4803 1206 4807 0
4803 4807 4808 0
303 4803 4808 0
4810 4805 304 0
4809 1207 4805 0
4809 4805 4810 0
1209 4809 4810 0
4812 4808 1207 0
4811 303 4808 0
4811 4808 4812 0
1208 4811 4812 0
4813 4809 1209 0
4812 1207 4809 0
4812 4809 4813 0
1208 4812 4813 0
4815 4813 1209 0
4814 1208 4813 0
4814 4813 4815 0
21 4814 4815 0
4817 4312 18 0
4816 1080 4312 0
4816 4312 4817 0
1211 4816 4817 0
4819 4309 1080 0
4818 271 4309 0
4818 4309 4819 0
1210 4818 4819 0
4820 4816 1211 0
4819 1080 4816 0
4819 4816 4820 0
1210 4819 4820 0
4822 4820 1211 0
4821 1210 4820 0
4821 4820 4822 0
306 4821 4822 0
4824 4300 271 0
4823 1077 4300 0
4823 4300 4824 0
1213 4823 4824 0
4826 4297 1077 0
4825 65 4297 0
4825 4297 4826 0
1212 4825 4826 0
4827 4823 1213 0
4826 1077 4823 0
4826 4823 4827 0
1212 4826 4827 0
4829 4827 1213 0
4828 1212 4827 0
4828 4827 4829 0
305 4828 4829 0
4831 4821 306 0
4830 1210 4821 0
4830 4821 4831 0
1214 4830 4831 0
4832 4818 1210 0
4824 271 4818 0
4824 4818 4832 0
1213 4824 4832 0
4833 4830 1214 0
4832 1210 4830 0
4832 4830 4833 0
1213 4832 4833 0
4834 4833 1214 0
4829 1213 4833 0
4829 4833 4834 0
305 4829 4834 0
4836 4831 306 0
4835 1214 4831 0
4835 4831 4836 0
1216 4835 4836 0
4838 4834 1214 0
4837 305 4834 0
4837 4834 4838 0
1215 4837 4838 0
4839 4835 1216 0
4838 1214 4835 0
4838 4835 4839 0
1215 4838 4839 0
4841 4839 1216 0
4840 1215 4839 0
4840 4839 4841 0
75 4840 4841 0
4843 4264 65 0
4842 1068 4264 0
4842 4264 4843 0
1218 4842 4843 0
4845 4261 1068 0
4844 268 4261 0
4844 4261 4845 0
1217 4844 4845 0
4846 4842 1218 0
4845 1068 4842 0
4845 4842 4846 0
1217 4845 4846 0
4848 4846 1218 0
4847 1217 4846 0
4847 4846 4848 0
307 4847 4848 0
4850 4252 268 0
4849 1065 4252 0
4849 4252 4850 0
1219 4849 4850 0
4851 4249 1065 0
4507 5 4249 0
4507 4249 4851 0
1131 4507 4851 0
4852 4849 1219 0
4851 1065 4849 0
4851 4849 4852 0
1131 4851 4852 0
4853 4852 1219 0
4512 1131 4852 0
4512 4852 4853 0
286 4512 4853 0
4855 4847 307 0
4854 1217 4847 0
4854 4847 4855 0
1220 4854 4855 0
4856 4844 1217 0
4850 268 4844 0
4850 4844 4856 0
1219 4850 4856 0
4857 4854 1220 0
4856 1217 4854 0
4856 4854 4857 0
1219 4856 4857 0
4858 4857 1220 0
4853 1219 4857 0
4853 4857 4858 0
286 4853 4858 0
4860 4855 307 0
4859 1220 4855 0
4859 4855 4860 0
1221 4859 4860 0
4861 4858 1220 0
4526 286 4858 0
4526 4858 4861 0
1136 4526 4861 0
4862 4859 1221 0
4861 1220 4859 0
4861 4859 4862 0
1136 4861 4862 0
4863 4862 1221 0
4531 1136 4862 0
4531 4862 4863 0
71 4531 4863 0
4865 4840 75 0
4864 1215 4840 0
4864 4840 4865 0
1223 4864 4865 0
4867 4837 1215 0
4866 305 4837 0
4866 4837 4867 0
1222 4866 4867 0
4868 4864 1223 0
4867 1215 4864 0
4867 4864 4868 0
1222 4867 4868 0
4870 4868 1223 0
4869 1222 4868 0
4869 4868 4870 0
308 4869 4870 0
4872 4828 305 0
4871 1212 4828 0
4871 4828 4872 0
1224 4871 4872 0
4873 4825 1212 0
4843 65 4825 0
4843 4825 4873 0
1218 4843 4873 0
4874 4871 1224 0
4873 1212 4871 0
4873 4871 4874 0
1218 4873 4874 0
4875 4874 1224 0
4848 1218 4874 0
4848 4874 4875 0
307 4848 4875 0
4877 4869 308 0
4876 1222 4869 0
4876 4869 4877 0
1225 4876 4877 0
4878 4866 1222 0
4872 305 4866 0
4872 4866 4878 0
1224 4872 4878 0
4879 4876 1225 0
4878 1222 4876 0
4878 4876 4879 0
1224 4878 4879 0
4880 4879 1225 0
4875 1224 4879 0
4875 4879 4880 0
307 4875 4880 0
4882 4877 308 0
4881 1225 4877 0
4881 4877 4882 0
1226 4881 4882 0
4883 4880 1225 0
4860 307 4880 0
4860 4880 4883 0
1221 4860 4883 0
4884 4881 1226 0
4883 1225 4881 0
4883 4881 4884 0
1221 4883 4884 0
4885 4884 1226 0
4863 1221 4884 0
4863 4884 4885 0
71 4863 4885 0
4887 4865 75 0
4886 1223 4865 0
4886 4865 4887 0
1228 4886 4887 0
4889 4870 1223 0
4888 308 4870 0
4888 4870 4889 0
1227 4888 4889 0
4890 4886 1228 0
4889 1223 4886 0
4889 4886 4890 0
1227 4889 4890 0
4892 4890 1228 0
4891 1227 4890 0
4891 4890 4892 0
309 4891 4892 0
4894 4882 308 0
4893 1226 4882 0
4893 4882 4894 0
1229 4893 4894 0
4895 4885 1226 0
4581 71 4885 0
4581 4885 4895 0
1150 4581 4895 0
4896 4893 1229 0
4895 1226 4893 0
4895 4893 4896 0
1150 4895 4896 0
4897 4896 1229 0
4586 1150 4896 0
4586 4896 4897 0
291 4586 4897 0
4899 4891 309 0
4898 1227 4891 0
4898 4891 4899 0
1230 4898 4899 0
4900 4888 1227 0
4894 308 4888 0
4894 4888 4900 0
1229 4894 4900 0
4901 4898 1230 0
4900 1227 4898 0
4900 4898 4901 0
1229 4900 4901 0
4902 4901 1230 0
4897 1229 4901 0
4897 4901 4902 0
291 4897 4902 0
4904 4899 309 0
4903 1230 4899 0
4903 4899 4904 0
1231 4903 4904 0
4905 4902 1230 0
4600 291 4902 0
4600 4902 4905 0
1155 4600 4905 0
4906 4903 1231 0
4905 1230 4903 0
4905 4903 4906 0
1155 4905 4906 0
4907 4906 1231 0
4605 1155 4906 0
4605 4906 4907 0
20 4605 4907 0
4909 4814 21 0
4908 1208 4814 0
4908 4814 4909 0
1233 4908 4909 0
4911 4811 1208 0
4910 303 4811 0
4910 4811 4911 0
1232 4910 4911 0
4912 4908 1233 0
4911 1208 4908 0
4911 4908 4912 0
1232 4911 4912 0
4914 4912 1233 0
4913 1232 4912 0
4913 4912 4914 0
311 4913 4914 0
4916 4802 303 0
4915 1205 4802 0
4915 4802 4916 0
1235 4915 4916 0
4918 4799 1205 0
4917 73 4799 0
4917 4799 4918 0
1234 4917 4918 0
4919 4915 1235 0
4918 1205 4915 0
4918 4915 4919 0
1234 4918 4919 0
4921 4919 1235 0
4920 1234 4919 0
4920 4919 4921 0
310 4920 4921 0
4923 4913 311 0
4922 1232 4913 0
4922 4913 4923 0
1236 4922 4923 0
4924 4910 1232 0
4916 303 4910 0
4916 4910 4924 0
1235 4916 4924 0
4925 4922 1236 0
4924 1232 4922 0
4924 4922 4925 0
1235 4924 4925 0
4926 4925 1236 0
4921 1235 4925 0
4921 4925 4926 0
310 4921 4926 0
4928 4923 311 0
4927 1236 4923 0
4927 4923 4928 0
1238 4927 4928 0
4930 4926 1236 0
4929 310 4926 0
4929 4926 4930 0
1237 4929 4930 0
4931 4927 1238 0
4930 1236 4927 0
4930 4927 4931 0
1237 4930 4931 0
4933 4931 1238 0
4932 1237 4931 0
4932 4931 4933 0
76 4932 4933 0
4935 4766 73 0
4934 1196 4766 0
4934 4766 4935 0
1240 4934 4935 0
4937 4763 1196 0
4936 300 4763 0
4936 4763 4937 0
1239 4936 4937 0
4938 4934 1240 0
4937 1196 4934 0
4937 4934 4938 0
1239 4937 4938 0
4940 4938 1240 0
4939 1239 4938 0
4939 4938 4940 0
312 4939 4940 0
4942 4754 300 0
4941 1193 4754 0
4941 4754 4942 0
1241 4941 4942 0
4943 4751 1193 0
4817 18 4751 0
4817 4751 4943 0
1211 4817 4943 0
4944 4941 1241 0
4943 1193 4941 0
4943 4941 4944 0
1211 4943 4944 0
4945 4944 1241 0
4822 1211 4944 0
4822 4944 4945 0
306 4822 4945 0
4947 4939 312 0
4946 1239 4939 0
4946 4939 4947 0
1242 4946 4947 0
4948 4936 1239 0
4942 300 4936 0
4942 4936 4948 0
1241 4942 4948 0
4949 4946 1242 0
4948 1239 4946 0
4948 4946 4949 0
1241 4948 4949 0
4950 4949 1242 0
4945 1241 4949 0
4945 4949 4950 0
306 4945 4950 0
4952 4947 312 0
4951 1242 4947 0
4951 4947 4952 0
1243 4951 4952 0
4953 4950 1242 0
4836 306 4950 0
4836 4950 4953 0
1216 4836 4953 0
4954 4951 1243 0
4953 1242 4951 0
4953 4951 4954 0
1216 4953 4954 0
4955 4954 1243 0
4841 1216 4954 0
4841 4954 4955 0
75 4841 4955 0
4957 4932 76 0
4956 1237 4932 0
4956 4932 4957 0
1245 4956 4957 0
4959 4929 1237 0
4958 310 4929 0
4958 4929 4959 0
1244 4958 4959 0
4960 4956 1245 0
4959 1237 4956 0
4959 4956 4960 0
1244 4959 4960 0
4962 4960 1245 0
4961 1244 4960 0
4961 4960 4962 0
313 4961 4962 0
4964 4920 310 0
4963 1234 4920 0
4963 4920 4964 0
1246 4963 4964 0
4965 4917 1234 0
4935 73 4917 0
4935 4917 4965 0
1240 4935 4965 0
4966 4963 1246 0
4965 1234 4963 0
4965 4963 4966 0
1240 4965 4966 0
4967 4966 1246 0
4940 1240 4966 0
