#!ascii - generated by CreateLabelFiles project 
2713 5192
10.6737 63.2279 -0.416064 0
10.0485 64.0764 6.64295 0
10.784 53.1492 4.41282 0
13.1956 61.4172 -2.32886 0
16.4044 62.318 -0.529518 0
18.1013 58.0615 5.01926 0
18.6267 63.5839 3.89237 0
14.7385 59.211 9.07881 0
10.4398 51.9115 7.99005 0
8.21358 54.9551 4.7965 0
6.26841 60.0854 2.33071 0
5.87956 58.1466 5.38414 0
8.11471 65.6853 1.78066 0
5.2911 62.1219 3.67705 0
4.63081 59.4808 3.72366 0
5.25998 69.528 3.20543 0
4.39524 65.3645 5.70452 0
5.82678 63.9502 5.44778 0
1.88509 58.5288 5.96004 0
3.50628 72.0879 5.34046 0
1.69768 68.7075 6.93079 0
2.52632 66.8452 5.70329 0
1.12384 71.1617 8.25548 0
8.92876 65.1724 24.1919 0
11.9227 66.6071 24.0357 0
9.88936 64.1222 25.2422 0
13.0454 68.58 22.049 0
13.8875 67.821 22.039 0
13.5362 69.3777 18.8472 0
15.7209 70.9625 17.3723 0
14.8841 67.8439 17.5605 0
12.8972 65.5387 19.1842 0
16.5184 69.7432 14.4183 0
16.924 68.8292 16.0867 0
15.6887 67.2468 13.5934 0
16.3896 67.0817 10.4653 0
13.3519 65.5358 11.1369 0
5.87869 74.6712 6.24146 0
5.30219 72.5417 7.25684 0
17.1035 69.1691 10.1747 0
16.794 68.4334 8.11077 0
14.7492 70.0008 13.3954 0
16.2322 69.2539 11.9515 0
15.2368 69.2357 9.83169 0
12.7625 69.6003 9.45278 0
14.4948 69.2709 7.04457 0
11.2506 70.7223 11.177 0
10.0906 69.496 9.6432 0
12.586 71.2079 12.7241 0
11.5747 72.9495 11.1282 0
7.75688 70.2824 9.85153 0
9.67689 68.9653 7.06451 0
8.63027 72.7451 9.15716 0
6.1661 71.3932 9.32214 0
5.50014 70.4837 6.2044 0
16.8375 68.9734 4.93459 0
14.941 67.191 5.83544 0
13.554 69.6047 3.95807 0
15.6493 69.8218 4.36497 0
15.5337 69.7577 1.69357 0
13.6243 70.605 -0.101655 0
12.6998 69.1123 0.72705 0
8.97709 69.6733 4.3717 0
11.1587 69.1633 4.03625 0
7.02522 70.0239 4.15227 0
7.5211 70.2049 1.76172 0
8.15228 69.6041 0.127704 0
11.8187 71.3051 0.147181 0
9.98256 66.654 -1.97088 0
11.9273 71.0325 1.67568 0
9.70617 70.6129 0.0419514 0
8.74248 64.6403 -0.524623 0
8.41949 61.373 -1.4947 0
9.85589 61.6277 -2.67464 0
7.1405 61.1099 0.0573242 0
8.52834 59.218 1.76578 0
8.80183 55.4576 3.53488 0
8.44919 62.7777 23.3127 0
9.80267 64.2976 16.7899 0
10.6435 62.2893 20.384 0
11.3759 64.2022 9.92455 0
10.3942 64.3437 12.9054 0
7.52647 62.8132 15.0159 0
7.19185 60.2071 20.7991 0
11.8621 66.5676 4.71493 0
11.8783 66.022 7.76577 0
10.7118 65.6662 -1.56858 0
11.379 65.684 1.4446 0
9.85732 63.8536 3.33013 0
11.8796 62.056 2.16522 0
9.45461 61.6234 5.21764 0
10.7299 59.6702 -1.49522 0
12.072 63.6819 -3.10695 0
9.78224 53.1541 5.24009 0
9.9665 56.0358 2.12525 0
11.4287 57.112 0.616197 0
11.7287 54.4517 3.72836 0
13.6119 59.2563 0.592427 0
13.0627 62.1045 -0.819539 0
14.8125 61.6416 1.34288 0
12.715 63.8943 -2.06764 0
14.6786 62.056 -1.66732 0
16.3972 60.2002 0.658411 0
17.8843 62.9053 1.45594 0
15.7409 61.7193 3.44503 0
16.1691 57.7836 4.39558 0
18.6432 61.4491 1.72856 0
19.8214 61.7904 3.83516 0
18.726 57.5512 6.42459 0
20.3042 61.6252 6.14236 0
9.09473 64.1618 9.03248 0
8.55069 62.1151 8.09439 0
10.258 59.6302 7.52687 0
11.3387 58.952 9.85692 0
13.8045 59.8458 6.80534 0
17.4724 61.289 8.74817 0
16.894 61.2191 5.75063 0
19.7576 63.1453 6.65445 0
14.3552 50.5908 5.89868 0
11.7442 50.3066 7.44912 0
12.5706 50.0651 6.60714 0
11.3074 51.0496 7.76029 0
9.49036 53.2678 6.95073 0
9.99252 52.3941 8.00768 0
9.91747 52.8771 6.94837 0
10.5427 51.4593 9.04273 0
11.0939 50.8321 9.06849 0
8.76278 53.9371 5.54668 0
8.83188 53.7536 6.40334 0
7.91118 56.359 4.08764 0
7.95173 55.8094 5.38966 0
8.30204 54.6151 5.84188 0
6.87575 58.9307 3.00399 0
6.86953 58.2892 4.5472 0
7.51733 57.1053 4.99762 0
6.15123 61.2637 1.61012 0
5.51549 60.0703 3.03424 0
6.07596 59.2492 3.86523 0
8.304 64.2797 1.33094 0
6.817 62.7184 2.26898 0
5.63794 61.0314 2.37415 0
7.6416 66.9635 2.35285 0
7.29586 65.0002 3.54273 0
7.57877 64.3605 2.96807 0
4.52377 60.7985 3.12769 0
3.28876 59.1369 4.80353 0
3.85327 58.3374 5.06038 0
5.92229 68.5174 2.84781 0
5.89329 66.5727 4.15441 0
6.64067 65.678 3.95254 0
4.66022 70.3769 3.68727 0
4.15714 68.4635 4.11199 0
4.82878 67.2409 4.05352 0
5.26426 64.7474 5.72657 0
3.72189 63.0744 7.24753 0
3.69966 62.2014 6.63124 0
3.23354 60.1701 4.81012 0
2.13915 57.5077 5.75189 0
5.84472 63.2376 4.72773 0
3.40775 61.3037 5.64679 0
1.992 59.3809 6.46024 0
5.05841 58.6783 4.43079 0
4.65227 57.5175 5.54508 0
3.53455 71.254 4.99919 0
3.26593 69.7379 5.29436 0
3.73039 69.2196 4.62261 0
3.27961 72.7822 5.45265 0
2.50462 71.0181 6.74536 0
2.98204 70.3295 6.07248 0
2.04081 67.6453 6.06802 0
1.05558 66.1667 7.20751 0
1.61066 65.0416 6.99936 0
1.76222 73.7761 7.23055 0
2.16767 72.2173 7.26737 0
0.400457 72.9997 7.98959 0
-0.0431335 70.1064 9.06945 0
1.10921 67.5158 8.25565 0
1.29394 69.7268 7.65668 0
0.560706 68.6116 8.89885 0
3.31059 63.653 7.51027 0
2.47744 60.9519 8.37342 0
3.55571 66.0893 5.79663 0
2.37051 64.287 7.20976 0
8.98833 66.358 20.5871 0
8.76448 65.1214 21.6622 0
9.71574 65.5272 22.8924 0
9.50442 65.0702 25.095 0
8.50535 64.3889 26.5584 0
11.162 66.4822 22.9408 0
10.406 66.1439 24.2923 0
11.0323 65.721 24.7514 0
12.3514 66.1136 24.1476 0
11.116 64.6497 24.2814 0
14.462 71.7635 16.1872 0
12.9573 67.1088 23.189 0
13.1312 66.4101 22.6845 0
11.7453 67.0014 21.7327 0
12.4943 67.4066 22.9004 0
13.5442 68.5415 22.4325 0
14.0501 69.3724 21.2606 0
14.5321 69.1591 21.2632 0
10.5457 66.9973 20.6338 0
13.2867 68.982 20.4181 0
14.2631 69.6955 19.5894 0
11.923 67.9233 20.6639 0
12.2109 68.3465 19.19 0
14.661 70.382 18.2785 0
15.5874 70.0491 18.4143 0
13.4376 70.2651 17.7386 0
14.6615 71.2989 17.2853 0
15.8201 71.6394 16.3978 0
13.9322 66.4942 20.6653 0
12.7812 65.1468 21.1163 0
15.3198 68.8513 18.9503 0
14.5454 68.1052 20.0107 0
13.6497 67.0124 18.4609 0
13.9283 66.5976 16.2104 0
12.5106 65.8183 17.0089 0
16.3549 70.041 16.9205 0
16.0826 69.4505 17.9699 0
15.9785 70.4305 15.1953 0
16.4863 70.4436 16.0542 0
17.2086 69.3133 15.3405 0
17.0914 69.4484 13.5592 0
17.3639 68.6738 14.3259 0
15.322 67.4664 15.4825 0
14.4342 66.1937 14.1934 0
16.0423 68.472 16.8394 0
16.6154 67.9872 14.892 0
16.8511 68.0572 13.1527 0
14.5551 66.4604 12.2888 0
13.101 65.5649 12.8296 0
17.1486 68.0955 11.6712 0
15.9374 67.2078 11.9072 0
14.8919 66.4452 10.7339 0
15.4081 66.6125 9.40956 0
13.8805 65.5958 9.68536 0
8.19165 74.8452 6.64289 0
8.9858 74.299 7.27165 0
5.09093 75.5662 5.92479 0
7.29626 75.465 5.98714 0
6.71798 74.4484 6.95585 0
6.43423 75.6403 5.71057 0
4.70503 74.6646 5.82786 0
5.40866 73.6637 6.96032 0
6.26551 73.4388 7.89886 0
4.35627 73.6765 6.01249 0
4.31192 72.5727 6.12798 0
4.34891 71.5167 5.88933 0
16.7651 67.2382 9.1784 0
15.7509 67.2431 8.22807 0
17.4417 68.8956 11.449 0
17.0968 68.1873 10.3715 0
17.3469 68.8783 9.21231 0
16.8787 69.6343 9.03013 0
17.058 69.2434 7.88938 0
16.5574 69.9217 13.0591 0
17.2431 69.8269 12.2751 0
15.2232 70.5758 14.3864 0
15.7994 69.9262 13.7789 0
15.4049 69.4177 12.7219 0
14.1234 69.7961 12.5951 0
14.9725 69.2075 11.7854 0
16.3836 69.448 10.0286 0
16.0137 69.6009 8.73445 0
16.8082 68.8988 11.1557 0
15.6793 68.9511 10.9547 0
14.4455 69.2219 10.7963 0
14.8682 69.2222 8.50464 0
15.6157 69.4312 7.24291 0
13.0502 69.4533 10.6928 0
14.0586 69.3168 9.62237 0
13.6982 69.2745 8.30007 0
12.3647 69.1999 8.29033 0
13.2117 68.9511 6.97418 0
11.4041 69.6673 9.52954 0
11.104 69.1733 8.27721 0
12.1056 69.6993 11.6189 0
11.8173 69.9316 10.4734 0
10.5542 70.1786 10.5543 0
10.1094 71.5218 11.1343 0
9.3585 70.5716 10.5294 0
13.6161 70.5804 13.1908 0
12.7682 70.2761 12.486 0
14.305 70.8403 13.9097 0
13.5034 71.7336 13.4002 0
12.7968 72.5011 12.6539 0
11.0708 72.3211 11.663 0
10.2692 72.6412 11.2059 0
11.6912 70.8982 12.1124 0
11.8481 72.2348 12.151 0
10.1161 72.8895 10.0053 0
9.83399 69.0221 8.39099 0
10.796 68.794 6.90697 0
8.50505 71.2876 10.386 0
8.8638 69.3815 9.69139 0
8.68927 68.7401 8.41949 0
7.51923 69.3113 8.59112 0
8.59149 69.0491 7.14349 0
9.9858 73.4024 8.86527 0
8.99119 72.3062 9.98084 0
8.06307 73.057 8.38636 0
6.93613 70.8687 9.63234 0
6.51491 69.8381 8.44243 0
7.90971 71.6439 9.96179 0
7.23653 71.9183 9.37939 0
6.66826 72.6351 8.83406 0
5.75808 70.4577 7.88134 0
6.38994 69.8986 6.9235 0
5.72818 72.0046 8.47042 0
5.10643 71.0881 6.99485 0
4.71718 70.8897 5.22045 0
15.8442 68.2779 7.05135 0
14.7749 66.6454 7.2641 0
16.8973 69.3818 6.2765 0
16.9032 68.716 6.5999 0
15.9912 68.5291 5.46413 0
15.8474 68.6182 3.8162 0
14.9217 67.5181 4.28575 0
15.1802 69.6074 5.70275 0
16.1691 69.6733 5.96787 0
12.8235 69.1797 5.50268 0
14.0468 69.451 5.54686 0
14.6509 69.7404 4.09149 0
14.0079 70.0565 2.62432 0
14.8943 69.9383 2.68793 0
16.2319 69.2468 3.22838 0
15.3452 68.9544 2.13887 0
16.5584 69.5944 4.60745 0
15.7245 69.7406 2.95535 0
14.9437 70.6079 1.63869 0
14.5344 69.5637 0.987812 0
13.7209 68.632 1.64488 0
14.1494 71.3286 0.935922 0
14.8652 70.338 0.662489 0
13.2141 69.9522 0.23426 0
11.6283 69.1807 -0.745655 0
11.4423 68.3869 -0.44167 0
10.4458 68.6205 5.6356 0
11.6063 68.8611 5.54854 0
8.43872 69.5522 5.81691 0
9.42064 69.1657 5.7852 0
10.0075 69.4304 4.23738 0
9.39204 70.2258 2.89967 0
10.504 70.1818 2.79717 0
6.29268 70.3067 5.2019 0
7.39465 69.9515 5.64588 0
5.31106 70.3748 4.44995 0
6.04236 70.0569 3.78599 0
6.44999 69.6463 2.84181 0
8.32271 70.1935 2.94604 0
8.45326 70.4862 1.65371 0
7.99684 69.8703 4.35628 0
7.27822 70.0696 2.88576 0
6.95656 69.4198 1.96905 0
7.44862 70.3804 0.624255 0
8.37347 70.7319 0.579492 0
7.47522 69.0087 1.2829 0
8.29074 67.6577 0.91484 0
8.8026 65.8475 0.528734 0
11.765 70.1466 -0.890225 0
10.419 66.5026 -2.33098 0
13.1291 71.7206 1.15499 0
12.7947 71.2154 0.334973 0
11.1127 70.3162 -0.963106 0
10.3715 69.9818 -0.867137 0
9.83372 66.5885 -1.76493 0
12.9009 69.9773 2.56289 0
13.0687 71.3375 1.73948 0
12.3692 69.3785 3.94379 0
11.7025 69.9167 2.61379 0
10.754 70.6833 1.67188 0
10.7801 70.9991 0.122944 0
9.63474 69.4068 -0.800953 0
11.9944 71.5494 1.01007 0
10.8156 71.1534 0.902058 0
9.44366 70.9141 0.58935 0
9.55345 68.5833 -0.47783 0
9.17848 65.5235 -1.038 0
8.74503 70.3457 -0.0331797 0
9.2463 67.3795 -0.0513675 0
8.26222 63.6788 0.176657 0
9.59907 63.1359 -2.85783 0
10.3641 63.3921 -3.2266 0
8.74854 63.3523 -1.85599 0
9.1594 63.3587 -2.37469 0
9.10305 61.4758 -2.1673 0
8.77318 60.2167 -1.00347 0
9.42383 60.2361 -1.69122 0
7.57066 62.6228 -0.449934 0
8.16657 63.1225 -1.15374 0
6.71864 61.9786 0.408124 0
6.56288 60.6823 1.04011 0
7.33273 59.7817 1.93101 0
8.33947 60.4385 -0.0157874 0
9.1137 59.3817 0.983226 0
7.81999 61.3608 -0.751801 0
7.87665 60.3221 0.986814 0
7.88234 58.5354 2.52075 0
8.65834 57.4524 2.39317 0
9.18911 57.4128 1.87015 0
8.16473 56.9478 3.10912 0
8.35474 55.2463 3.99878 0
8.86453 54.0505 4.92495 0
7.65833 63.8128 26.1917 0
10.4785 63.5541 23.3257 0
9.1761 63.4299 24.6733 0
6.88726 63.2896 24.8294 0
6.32631 62.5779 23.2019 0
11.8603 64.0044 19.8679 0
11.3826 63.741 21.7675 0
11.3723 64.7413 15.7326 0
11.3509 64.8218 17.8858 0
10.5241 63.1061 18.5979 0
8.96534 62.3879 17.5779 0
9.65707 60.9253 19.1693 0
11.9069 64.7552 11.8382 0
11.63 64.6579 13.6632 0
12.8457 65.2642 9.17257 0
12.4626 64.437 10.3364 0
10.8852 64.2773 11.2583 0
9.72444 64.0728 10.8315 0
9.20167 64.0439 12.2998 0
8.47339 63.78 15.9175 0
7.46915 61.7512 16.7213 0
10.0009 64.3752 14.7667 0
8.79237 64.1559 13.9533 0
7.8685 63.4231 13.2399 0
7.89629 61.6321 22.0525 0
5.72354 61.5613 21.6499 0
9.78477 62.4221 21.9402 0
9.11341 60.8811 20.7218 0
8.19424 59.5299 19.6541 0
4.88347 60.6387 20.1941 0
6.08946 59.3147 19.715 0
6.55554 58.9318 19.0505 0
13.4045 66.6332 6.53617 0
13.1669 66.2217 7.98255 0
13.2884 67.1209 3.47562 0
13.4577 66.8755 5.01374 0
11.9725 66.2412 6.27545 0
10.9666 65.2556 5.80101 0
10.9426 65.0098 7.25308 0
12.03 67.5334 0.796538 0
12.8463 67.2805 2.04915 0
10.7057 66.3588 -2.01344 0
10.9935 67.1649 -0.536967 0
10.709 65.9016 -0.103751 0
10.7302 64.5483 -1.03777 0
10.6933 64.527 0.599778 0
10.7377 65.2128 4.1036 0
10.0724 63.9674 5.15141 0
11.9162 66.1667 3.02559 0
10.9687 64.5625 2.33883 0
10.3084 63.2212 1.42699 0
9.82695 62.83 4.44126 0
9.44895 62.9182 6.05929 0
10.5855 62.4503 0.719663 0
10.208 62.8396 2.55189 0
10.7822 62.0889 3.65028 0
12.2424 61.2801 3.33546 0
10.9414 60.6366 4.87094 0
10.8245 62.2301 -2.94163 0
11.2789 64.4191 -3.18163 0
9.97143 59.1744 -0.634425 0
10.2388 60.5017 -2.27107 0
11.3907 61.4535 -2.7155 0
11.833 60.5402 -2.03159 0
12.7169 62.7502 -2.7796 0
9.44953 55.8546 2.92263 0
9.52584 57.406 1.01851 0
9.56014 53.3327 5.70335 0
9.08317 54.0923 4.24094 0
9.51394 54.177 3.65971 0
10.1485 53.0154 4.81345 0
10.0158 54.242 3.02919 0
11.03 58.5132 -0.486 0
12.1452 59.6126 -0.953593 0
10.037 57.6862 0.147411 0
10.6044 56.3388 1.36655 0
10.7278 54.6524 2.41945 0
12.4388 58.3449 0.481169 0
13.4453 60.4084 -1.06695 0
11.1579 53.4775 4.00918 0
11.6441 55.735 1.9986 0
12.7353 57.1125 2.02317 0
12.7053 55.8071 3.79499 0
13.9198 58.0736 2.22226 0
13.1459 61.4253 1.69904 0
13.7485 61.2704 2.94443 0
11.4539 62.5087 -0.735542 0
12.3262 61.7187 0.476564 0
13.9382 61.7221 0.321227 0
14.7896 62.1156 -0.680313 0
15.696 62.1437 0.14636 0
11.7458 64.7233 -2.23091 0
11.5175 63.659 -1.55802 0
11.6594 65.0245 -2.73763 0
12.6092 64.1814 -2.73502 0
13.4063 63.2117 -2.34267 0
14.004 62.4517 -1.4173 0
15.5472 62.1248 -1.2586 0
12.7029 63.0217 -1.43559 0
13.6698 63.0463 -1.7411 0
14.0037 61.9279 -2.01706 0
15.9707 61.4315 -1.08721 0
16.9814 61.8801 -0.544881 0
14.7227 60.9612 -1.11118 0
14.9824 59.718 0.603972 0
15.2169 58.6841 2.27519 0
15.3525 61.6839 2.38998 0
14.264 61.05 4.16841 0
17.1498 62.9019 0.270114 0
16.3147 62.5817 1.02764 0
16.759 62.6213 2.24662 0
18.4158 63.4596 2.57469 0
17.2316 62.8734 3.34241 0
17.6076 60.7995 1.0203 0
17.7996 62.5115 0.149044 0
15.1463 57.3645 4.0273 0
16.4617 59.1671 2.46737 0
17.703 59.5488 2.78912 0
17.2535 57.8468 4.7605 0
18.7421 60.0005 3.43743 0
19.2257 63.1024 2.33021 0
19.5083 63.0569 3.6615 0
18.6579 62.6367 1.22023 0
19.4484 61.6963 2.71015 0
19.415 59.9878 4.45751 0
20.236 61.8181 5.1229 0
20.042 63.2354 5.10565 0
18.5092 57.9662 5.82924 0
19.3857 60.0298 5.4942 0
19.3607 59.7993 6.24751 0
10.1113 64.5631 9.51749 0
8.64295 63.8754 10.3813 0
11.5964 65.1949 8.90728 0
10.4357 65.2999 8.46085 0
9.39077 64.393 7.81514 0
8.12891 61.2246 8.95151 0
8.57941 63.5084 8.61489 0
8.77578 63.2404 7.26941 0
9.00246 60.7135 7.74331 0
9.2659 59.9089 8.86142 0
8.64299 62.0384 6.78651 0
10.0263 60.4704 6.42944 0
11.4087 60.0114 6.14821 0
13.6903 58.5415 10.9513 0
15.0477 59.1662 10.5565 0
13.1282 58.9412 9.40882 0
12.625 59.1677 8.24746 0
14.3649 59.362 7.85405 0
10.882 59.3109 8.67459 0
12.0561 59.631 7.30782 0
13.234 60.5458 5.91625 0
16.2104 60.0758 8.83655 0
16.3225 60.2506 10.3522 0
15.4818 60.0398 6.02605 0
15.8392 59.9574 7.408 0
14.8389 60.5423 5.01738 0
16.1638 61.5606 4.53195 0
17.7237 62.6965 4.6044 0
18.8027 62.3803 7.51115 0
17.3538 61.0497 7.25814 0
18.3591 62.4885 6.00773 0
19.3571 63.5805 5.34017 0
20.2094 62.796 6.29866 0
16.991 55.4627 5.86836 0
15.501 55.9313 5.5303 0
16.3603 55.7173 5.9019 0
13.9228 54.3779 5.16901 0
14.6091 55.6231 5.34374 0
15.09 50.9079 4.79657 0
15.7074 51.3868 3.84521 0
12.2312 52.2301 5.4765 0
12.8961 53.0723 5.12319 0
11.6055 51.7308 6.05689 0
11.9211 51.8364 5.83713 0
12.2161 49.9939 7.03809 0
11.1486 48.9383 7.28181 0
11.4168 48.5978 6.64087 0
10.6019 52.2577 6.44355 0
11.2077 52.1333 6.32813 0
10.3156 52.578 6.76118 0
10.9662 51.5412 7.93878 0
11.0689 49.9155 8.64661 0
11.1014 49.0482 7.82819 0
11.4733 50.4788 7.50942 0
11.0942 49.3291 8.27196 0
10.3937 48.5342 8.6512 0
13.3676 50.2804 6.33551 0
9.41133 53.3765 6.46482 0
9.73614 53.0723 7.02358 0
9.60969 53.2205 6.46251 0
9.50058 53.0578 7.41593 0
9.76387 52.8674 7.51608 0
9.9673 52.6295 7.48452 0
10.2052 52.1335 8.00052 0
10.1574 52.4092 7.4095 0
10.4876 51.6467 8.51468 0
10.0019 52.1706 8.52262 0
10.7937 51.4411 8.53003 0
10.8825 50.4811 9.31733 0
9.09641 53.6621 5.87156 0
9.13044 53.5916 6.2538 0
8.48084 54.4215 5.19178 0
8.49909 54.2993 5.62924 0
8.7878 53.8446 5.95213 0
9.18411 53.5021 6.70187 0
9.16522 53.279 7.13665 0
8.03896 55.6084 4.44866 0
8.06607 55.4001 4.99198 0
8.26015 54.7949 5.31582 0
7.71654 57.0511 3.79546 0
7.78016 56.7933 4.49478 0
7.93696 56.1001 4.74325 0
8.08061 55.1493 5.56826 0
7.99666 54.8264 6.11443 0
8.81573 53.5311 6.85275 0
8.54094 54.1319 6.12555 0
8.51269 53.8859 6.6345 0
7.14928 58.3361 3.22531 0
7.18391 58.0689 3.99961 0
7.48145 57.423 4.23501 0
6.57013 59.5054 2.71272 0
6.49351 59.1582 3.47544 0
6.88241 58.6363 3.77342 0
7.22673 57.7494 4.7882 0
6.99091 57.0859 5.31179 0
7.27257 56.5194 5.53303 0
6.08529 60.6549 1.95571 0
5.80652 60.121 2.63757 0
6.18913 59.7278 3.10701 0
6.41297 61.8969 1.30675 0
5.85442 61.2466 1.92369 0
5.83196 60.698 2.30767 0
5.67897 59.6388 3.41334 0
5.56187 59.0914 4.1718 0
5.96598 58.7113 4.60789 0
6.66528 57.6037 5.07062 0
6.46934 58.7984 4.271 0
6.31123 58.1643 4.87602 0
6.18254 57.5233 5.50807 0
7.84561 55.4469 5.96845 0
7.81735 56.4903 5.19021 0
7.58139 55.962 5.73388 0
7.82326 63.415 1.11298 0
7.07358 62.7015 1.57157 0
6.34266 61.8757 1.72084 0
8.45419 65.1053 1.5991 0
8.00693 64.4694 2.09718 0
7.81313 63.5721 1.80673 0
6.03986 61.7962 2.12855 0
5.22238 60.8832 2.77781 0
5.01507 60.2423 2.98541 0
7.81421 66.2673 2.00971 0
7.69159 65.4523 2.63469 0
7.84984 65.1327 2.3569 0
7.36167 67.5483 2.60156 0
7.22137 66.3868 3.20065 0
7.5431 65.9926 3.00061 0
7.49819 64.6772 3.26985 0
6.66056 63.6872 3.75862 0
6.55909 63.1656 3.37132 0
5.58031 61.7041 2.6308 0
4.51985 59.9994 3.42157 0
7.34773 63.6213 2.57816 0
6.24867 62.3844 2.92595 0
4.92438 61.5161 3.29826 0
4.02268 59.3408 4.15482 0
4.29939 58.8946 4.35812 0
3.98478 60.6239 4.00581 0
3.89635 59.9661 3.96896 0
3.53083 58.6874 4.90344 0
2.95727 57.9086 5.4253 0
3.28251 57.6188 5.58305 0
6.37633 68.1996 2.75965 0
6.38348 67.196 3.35799 0
6.74883 66.6558 3.28995 0
5.54881 68.8995 3.03284 0
5.41043 67.8554 3.40143 0
5.95847 67.521 3.46967 0
6.3019 66.129 4.10188 0
6.08294 65.2076 4.89669 0
6.42038 64.8405 4.74663 0
4.96126 70.0456 3.4085 0
4.72587 69.1903 3.48769 0
5.04607 68.4334 3.52926 0
4.39083 70.6935 3.94083 0
4.19683 70.0546 3.87118 0
4.41861 69.6799 3.65342 0
4.4909 67.9757 4.05705 0
4.24016 66.7059 4.88015 0
4.70933 66.3204 4.89973 0
5.6897 65.5957 4.96599 0
5.68653 64.3826 5.69128 0
5.36261 66.8419 4.14186 0
5.23673 65.9674 4.96236 0
4.83754 65.0548 5.71552 0
4.82778 63.6204 6.37329 0
4.86662 63.1179 6.11608 0
4.14818 64.2845 6.49909 0
4.50561 63.9975 6.44777 0
3.76534 62.6713 6.95072 0
3.21133 61.2968 7.45141 0
3.15143 60.8696 7.06009 0
2.66546 58.1752 5.26746 0
4.17813 61.1946 4.10827 0
3.17608 59.5776 4.71847 0
2.47273 58.6353 5.29102 0
2.3744 59.3656 5.479 0
1.96619 57.983 5.84526 0
6.91733 64.2662 4.28701 0
5.58431 62.6378 4.21428 0
6.94389 65.3273 3.75466 0
6.62681 64.5866 4.49869 0
6.04198 63.6067 5.2388 0
3.30511 60.8012 5.22622 0
2.34825 59.9892 5.69445 0
4.43405 61.6735 4.65646 0
4.62343 62.1713 5.18768 0
4.85152 62.5653 5.76598 0
2.39343 60.4538 5.99299 0
1.84867 59.0234 6.07631 0
3.4606 61.8255 6.11265 0
2.67269 60.726 6.46505 0
2.32084 59.6392 6.96425 0
5.2546 59.3735 3.73214 0
5.46051 58.4459 4.90517 0
5.46907 60.5077 2.66863 0
5.17477 59.7653 3.38315 0
4.85867 59.0588 4.07895 0
4.98877 57.1228 5.79378 0
5.22216 57.7553 5.3485 0
4.85906 58.0764 4.98319 0
4.59849 58.4941 4.64112 0
4.28063 57.9423 5.28669 0
3.7123 57.4027 5.90467 0
3.74662 70.9606 4.77044 0
3.60146 70.5918 4.40091 0
3.94546 70.3693 4.1504 0
3.54381 71.6808 5.18604 0
3.20575 71.0896 5.00149 0
3.2766 70.7734 4.69374 0
3.51702 69.4634 4.93226 0
3.00174 68.2862 5.44002 0
3.21148 67.9402 5.22159 0
3.45418 72.4893 5.32351 0
3.07017 71.5822 5.73414 0
3.19 71.376 5.31567 0
3.10117 73.0325 5.66978 0
2.77254 72.2234 6.43086 0
2.96868 71.8205 6.13538 0
2.76701 70.6323 6.44427 0
2.02851 69.8854 6.7875 0
2.24187 69.4684 6.44622 0
2.73753 68.6392 5.70015 0
2.28851 67.2194 5.88145 0
3.07307 70.0261 5.68067 0
2.46814 69.0294 6.06435 0
1.82497 68.183 6.45622 0
1.8153 66.2935 6.481 0
2.08679 65.8786 6.37582 0
1.35309 67.4783 7.02441 0
1.53661 66.867 6.66967 0
1.29745 65.5631 7.03295 0
0.804867 64.9023 7.59545 0
1.12846 64.3917 7.65161 0
3.27339 73.8509 6.41276 0
2.59239 73.3856 6.81866 0
2.70289 72.7119 6.7296 0
2.09068 72.9372 7.36641 0
1.38753 72.5717 7.66997 0
1.69341 71.7155 7.77751 0
0.975462 73.4652 7.41632 0
0.787817 72.0181 8.12622 0
0.190108 71.552 8.62268 0
0.57937 70.5783 8.71125 0
0.75196 65.5395 7.83795 0
0.237979 64.2307 8.27627 0
1.38764 68.0627 7.60252 0
1.04064 66.8567 7.59686 0
0.748252 66.2736 8.21566 0
0.888092 66.9924 8.99049 0
1.8105 70.3195 7.1087 0
1.56111 69.2054 7.34495 0
2.24694 71.5379 6.96067 0
1.71314 70.9536 7.43128 0
1.1987 70.4258 8.01071 0
0.890757 68.1212 8.6701 0
0.627368 67.585 9.35035 0
1.15597 68.6341 7.97868 0
0.812297 69.2028 8.2411 0
0.665954 69.8399 8.48697 0
0.406659 69.2271 9.13583 0
3.16092 61.7622 7.78132 0
2.46849 60.5036 7.97513 0
3.93232 64.5315 6.70215 0
3.5851 63.3517 7.39279 0
2.87946 62.2635 7.87377 0
2.55542 62.6915 7.94574 0
3.88705 67.1457 4.96125 0
3.99979 65.7093 5.76602 0
3.87707 68.8715 4.34112 0
3.41644 67.5806 4.97348 0
3.01549 66.467 5.7349 0
2.83663 63.947 7.37858 0
2.21015 63.0878 7.94915 0
3.48329 64.8429 6.70652 0
2.96094 65.1562 6.53998 0
2.47017 65.5234 6.44878 0
1.83102 63.4548 7.82799 0
1.97646 64.6488 7.09038 0
1.46097 63.8799 7.71194 0
8.1853 65.9718 20.5628 0
8.96705 65.61 21.117 0
9.76686 66.0462 21.1078 0
9.59518 65.5635 21.6674 0
8.92496 65.0798 22.8531 0
9.33166 65.4443 23.5677 0
9.28851 65.2549 22.2256 0
10.0536 65.7407 22.2671 0
8.57572 64.614 26.3837 0
9.23946 65.1482 24.6834 0
8.86898 64.7236 25.4562 0
9.00699 64.5086 25.6801 0
9.70007 64.6401 25.182 0
9.07539 64.145 25.7523 0
10.0674 65.9068 23.6444 0
9.65587 65.64 24.2001 0
10.7622 66.2636 22.3234 0
10.4401 66.0271 22.9494 0
10.8005 66.3672 23.6666 0
11.5475 66.5425 23.4943 0
11.1684 66.3861 24.173 0
10.2428 65.3512 24.8595 0
10.4504 64.8512 24.8969 0
9.95012 65.6007 24.6323 0
10.7119 65.9357 24.5219 0
11.476 66.1948 24.3967 0
11.1329 65.2244 24.6268 0
10.5583 64.2857 24.7618 0
12.154 66.3895 24.1382 0
11.7322 65.9572 24.5111 0
11.7456 65.479 24.2525 0
12.3607 65.647 23.8266 0
11.6429 64.9036 23.7551 0
14.9197 71.7548 15.7875 0
12.8844 66.3043 23.6464 0
12.6758 65.7937 22.9847 0
12.4876 66.8592 23.6826 0
12.682 66.6133 23.7165 0
13.1673 66.8643 23.1777 0
13.4621 67.581 22.8181 0
13.5362 67.0476 22.3292 0
11.8364 66.9179 22.9212 0
12.2225 66.9672 23.4498 0
11.0509 66.5185 21.7294 0
11.4554 66.7507 22.3429 0
12.1275 67.2029 22.3236 0
12.3927 67.7727 21.8889 0
12.7613 67.9702 22.4602 0
13.2414 67.815 22.7957 0
13.7614 68.4021 22.5114 0
12.7505 67.2939 23.1008 0
13.0279 67.9742 22.7107 0
13.3119 68.5845 22.2751 0
14.0423 68.9632 22.0316 0
14.2304 68.6478 21.8019 0
13.5532 69.014 21.716 0
13.8154 69.0252 21.9234 0
14.3259 69.3942 21.4463 0
14.4813 69.5505 20.6197 0
14.7646 69.3759 20.5499 0
9.80376 66.5864 20.6113 0
10.5057 66.4431 21.1461 0
9.88014 66.9842 20.036 0
10.6499 67.2911 20.0219 0
14.1526 69.519 20.409 0
14.5852 69.6633 19.7114 0
13.1574 68.7966 21.2534 0
13.6811 69.1807 20.847 0
13.7752 69.3356 20.0146 0
13.4162 69.1713 19.6225 0
13.9094 69.5429 19.2199 0
11.8594 67.4711 21.2125 0
12.494 68.2636 21.3606 0
11.1908 66.9561 21.1721 0
11.2379 67.3971 20.6326 0
11.3762 67.6666 19.9855 0
12.7581 68.6716 19.7968 0
12.8791 68.8725 19.0393 0
12.5963 68.474 20.5671 0
12.0552 68.14 19.925 0
12.2773 68.6397 18.4853 0
12.9466 69.2016 18.3438 0
11.6 68.0878 18.5816 0
14.8991 69.9286 19.0538 0
15.2882 69.759 19.0488 0
14.093 69.8642 18.5538 0
14.4689 70.0218 18.916 0
15.1177 70.2458 18.3806 0
15.1993 70.6912 17.8438 0
15.6818 70.4991 17.8852 0
13.5207 69.7963 18.2594 0
14.6636 70.8446 17.7737 0
15.1905 71.1445 17.3349 0
14.0666 70.3341 18.0042 0
14.0436 70.7891 17.5111 0
15.2278 71.5017 16.8519 0
15.7691 71.3164 16.8859 0
14.5745 71.5811 16.7544 0
15.1405 71.7181 16.2827 0
15.59 71.6654 15.9078 0
12.9905 65.8734 21.9869 0
12.3761 65.1783 22.1236 0
14.014 67.2053 21.3999 0
13.5305 66.5309 21.734 0
13.4093 65.8032 20.9653 0
13.5952 65.9073 19.941 0
13.0222 65.2217 20.1503 0
14.8099 68.8477 20.908 0
14.4002 68.0258 21.1435 0
15.2353 69.3203 19.5638 0
15.0235 69.097 20.2414 0
15.0536 68.5492 19.5265 0
15.2822 68.3449 18.2839 0
14.7302 67.9151 18.7141 0
13.837 66.7656 19.5895 0
13.2091 66.3516 18.8452 0
14.1627 67.3191 20.3138 0
14.2116 67.4607 19.1979 0
14.3146 67.4197 17.9852 0
13.0945 66.3966 17.7497 0
12.5558 65.8932 18.107 0
14.4788 67.2868 16.8716 0
13.7611 66.8258 17.3044 0
13.1952 66.1268 16.6337 0
13.472 65.8281 15.5696 0
12.7099 65.5135 15.9263 0
15.9411 69.8049 18.327 0
15.593 69.5678 18.9343 0
16.0908 70.5741 17.2212 0
16.047 70.1506 17.7716 0
16.2744 69.6699 17.4609 0
16.6534 69.4633 16.5718 0
16.4468 69.2381 17.0548 0
16.1934 71.1126 16.2648 0
16.1514 70.82 16.7831 0
15.6551 71.0273 15.3039 0
15.9768 71.1326 15.8412 0
16.2538 70.4559 15.6519 0
16.2584 70.0393 14.8655 0
16.518 69.9795 15.2878 0
16.7626 69.649 16.1695 0
17.1999 69.0866 15.743 0
16.4266 70.2168 16.5295 0
16.8111 69.843 15.7486 0
16.8203 69.6143 14.8348 0
17.5432 68.8905 14.9106 0
17.3251 68.5732 15.2389 0
16.808 69.561 13.9857 0
17.1673 69.2169 14.4292 0
17.4551 69.101 13.9813 0
17.3749 69.3284 13.1498 0
17.3229 68.8923 13.4509 0
14.2042 66.3373 15.1674 0
13.7909 65.5308 14.543 0
15.0993 67.6861 16.4994 0
14.6767 67.0765 15.8194 0
14.8731 66.9276 14.8094 0
15.5443 67.2981 14.5054 0
15.0559 66.8397 13.8657 0
15.7656 68.6907 17.8862 0
15.5046 68.2109 17.2 0
15.7646 69.1775 18.5222 0
16.2734 68.9662 17.5255 0
16.7278 68.5518 16.5348 0
15.9949 67.8005 15.1673 0
16.1681 67.6785 14.2214 0
15.7453 68.0477 16.1626 0
16.4199 68.1235 15.8542 0
17.0563 68.2796 15.5555 0
16.7235 68.0447 13.9867 0
16.2846 67.6598 13.3515 0
17.1435 68.334 14.6294 0
17.1931 68.428 13.7568 0
17.265 68.4923 12.9397 0
13.8699 65.6689 13.5366 0
13.1227 65.2487 13.8419 0
15.1785 66.8108 12.9593 0
14.5074 66.3371 13.2192 0
13.8239 66.0454 12.5363 0
13.917 66.1199 11.6628 0
13.1652 65.5778 11.9318 0
16.4051 67.6627 12.5293 0
15.7955 67.2392 12.726 0
17.3401 68.543 12.2195 0
17.0084 68.0911 12.3747 0
16.6023 67.5969 11.7719 0
16.7425 67.5579 11.0572 0
16.1558 67.0849 11.1504 0
14.6756 66.4252 11.456 0
14.0863 66.0922 10.8846 0
15.2656 66.8161 12.083 0
15.4162 66.7408 11.2829 0
15.6708 66.7796 10.599 0
14.3435 66.083 10.173 0
13.586 65.5678 10.3918 0
15.9073 66.8063 9.92194 0
15.158 66.4826 10.0426 0
14.6617 66.0495 9.4896 0
14.8994 66.1874 8.84615 0
14.198 65.5585 8.97234 0
8.60967 74.5356 6.95112 0
7.82554 74.2432 7.1451 0
8.20342 74.0082 7.45905 0
4.28479 74.9561 6.35755 0
3.94982 74.5083 6.01344 0
7.43778 74.6018 6.76142 0
7.11898 74.1069 7.34975 0
7.76066 75.2051 6.26647 0
6.99692 74.979 6.39023 0
6.58229 75.0981 6.0567 0
6.29086 74.6432 6.58192 0
6.8683 75.5646 5.84169 0
6.17631 75.1489 5.95877 0
6.82173 75.9614 5.95951 0
5.64547 75.1804 5.82047 0
5.38934 74.6855 6.09839 0
5.85773 75.6796 5.71853 0
4.87604 75.1913 5.73073 0
3.90443 74.149 5.70626 0
6.36046 73.9617 7.58636 0
6.72092 73.6636 7.99855 0
5.60548 74.1868 6.68188 0
6.00049 74.1464 7.12437 0
5.88978 73.6399 7.43125 0
5.27851 73.1266 7.26132 0
5.77965 73.118 7.73506 0
4.55682 74.1711 5.85619 0
5.162 74.1919 6.24856 0
3.82205 73.8286 5.62609 0
3.76088 73.5002 5.56837 0
3.81175 73.0578 5.57507 0
4.80752 73.1278 6.69551 0
4.82038 72.5456 6.68415 0
4.9554 73.6791 6.50979 0
4.29861 73.1419 6.11871 0
3.81913 72.551 5.57886 0
4.32322 72.0125 6.07239 0
4.84583 71.9463 6.6701 0
3.82605 72.0692 5.46457 0
3.84176 71.5753 5.30322 0
3.95586 71.1739 5.07606 0
15.5991 66.8821 8.81209 0
15.0953 66.5551 8.30656 0
16.5969 67.1045 9.80581 0
16.0962 66.9449 9.28551 0
16.2513 67.2542 8.70255 0
16.7863 67.8436 8.64519 0
16.2904 67.8413 8.15591 0
17.1386 68.1344 11.0191 0
16.8034 67.6026 10.4041 0
17.4258 68.9151 12.0741 0
17.3408 68.5506 11.5804 0
17.2628 68.5774 10.923 0
17.2735 69.0514 10.8066 0
17.1115 68.7329 10.2834 0
17.142 68.1435 9.21032 0
17.1879 68.6537 8.66949 0
16.966 67.7393 9.78211 0
17.2147 68.543 9.79253 0
17.1732 69.0182 9.69495 0
17.2436 69.111 8.59081 0
17.043 68.8294 7.97399 0
16.9714 69.3834 9.59181 0
17.1307 69.3041 9.12247 0
17.0334 69.5527 8.53352 0
16.7569 69.7767 8.41006 0
16.8617 69.6106 7.78481 0
17.2151 69.7757 12.9048 0
17.3757 69.3503 12.4991 0
16.4707 69.6531 13.7113 0
16.9202 69.8868 13.298 0
17.0131 70.13 12.6761 0
16.4259 69.6574 12.5029 0
16.8185 69.7351 12.1079 0
15.9017 70.1244 14.4917 0
16.1763 69.8206 14.1251 0
15.2925 71.0416 14.8923 0
15.6004 70.4874 14.779 0
15.5033 70.2134 14.1061 0
14.9908 70.2563 13.8963 0
15.2465 69.9266 13.5908 0
15.9699 69.4277 12.8837 0
15.8227 69.1782 12.3445 0
16.1105 69.6974 13.4534 0
15.5465 69.6372 13.2743 0
14.9986 69.6476 13.102 0
15.2155 69.2718 12.2297 0
15.6146 69.0386 11.8409 0
14.4229 69.8473 12.9944 0
14.7823 69.4887 12.6305 0
14.537 69.4133 12.1957 0
13.8853 69.7425 12.1569 0
14.3047 69.334 11.76 0
16.4912 69.7591 8.9445 0
16.2916 69.6253 8.20486 0
16.7521 69.2696 10.0921 0
16.5988 69.5683 9.53719 0
16.2136 69.7285 9.4604 0
15.8303 69.4786 9.95902 0
15.649 69.5314 9.32968 0
17.1555 68.9387 11.2994 0
16.9541 69.0336 10.672 0
17.381 69.3309 11.8734 0
17.0326 69.387 11.7115 0
16.5733 69.1939 11.5586 0
16.0609 69.1782 10.5004 0
15.4326 69.1468 10.4374 0
16.5984 69.1155 10.5755 0
16.3077 68.9153 11.0362 0
15.9665 68.9691 11.4346 0
15.0487 69.0237 10.8899 0
14.8374 69.0932 10.3252 0
15.3272 69.032 11.3689 0
14.6813 69.174 11.3284 0
14.0537 69.3557 11.2507 0
15.8135 69.4217 8.00046 0
16.1158 69.5039 7.39208 0
15.0685 69.3123 9.2133 0
15.4504 69.3829 8.61106 0
15.2534 69.3096 7.88951 0
14.6774 69.2191 7.78944 0
15.0578 69.3592 7.14285 0
14.248 69.2777 10.235 0
14.6474 69.1811 9.7226 0
13.2436 69.3493 11.2602 0
13.8198 69.3853 10.7168 0
13.6299 69.4231 10.1519 0
12.9336 69.6494 10.088 0
13.4346 69.3891 9.52889 0
14.2856 69.2219 8.40177 0
14.1024 69.2032 7.68725 0
14.476 69.2208 9.10243 0
13.8775 69.2804 8.99722 0
13.2646 69.3453 8.89593 0
13.4394 69.0488 7.65613 0
13.8659 69.1256 6.99396 0
12.5809 69.4227 8.90173 0
13.0343 69.1458 8.26918 0
12.7843 68.8884 7.63062 0
12.15 68.9487 7.627 0
12.5614 68.7673 6.96142 0
11.7385 69.2438 8.27881 0
11.5535 68.9718 7.57078 0
12.0642 69.6864 9.46044 0
11.9126 69.478 8.90927 0
11.275 69.4533 8.93897 0
10.7547 69.6109 9.59888 0
10.6096 69.3162 8.99026 0
12.3073 69.606 10.6524 0
12.2172 69.8277 10.0332 0
12.6883 69.4498 11.7732 0
12.4394 69.3757 11.2671 0
11.912 69.7067 11.0864 0
11.6297 70.1234 11.3716 0
11.4616 70.0609 10.8737 0
10.898 69.8072 10.1542 0
10.2688 69.9189 10.1986 0
11.5587 69.8507 10.0757 0
11.2003 69.9832 10.4981 0
10.8644 70.3467 10.8722 0
9.92075 70.5005 10.5759 0
9.66115 69.9156 10.1765 0
10.685 71.1808 11.1616 0
10.2286 70.7124 10.9048 0
9.6535 71.0737 10.8759 0
9.70467 71.705 10.9655 0
9.26135 71.3853 10.7443 0
13.4455 70.1076 12.5751 0
13.053 69.7944 12.1765 0
14.1978 70.2337 13.2852 0
13.7887 70.1819 12.9559 0
13.2115 70.5193 12.8242 0
13.1241 70.9662 12.9329 0
12.6404 70.7436 12.6277 0
14.7745 70.7063 14.1262 0
14.5325 70.3728 13.6903 0
14.9831 71.1794 14.5128 0
14.5424 71.2825 14.2549 0
13.5437 71.0192 13.3049 0
13.071 71.3952 13.0424 0
14.0144 70.6175 13.5504 0
13.9569 71.2754 13.6494 0
13.1436 72.0502 12.9903 0
12.6967 71.8651 12.7524 0
10.16 72.1067 11.2167 0
9.76162 72.328 11.0411 0
11.1367 71.5335 11.4372 0
10.5698 71.9491 11.3934 0
10.6814 72.4932 11.4262 0
11.3172 72.6431 11.4046 0
10.9093 72.8011 11.1581 0
11.8649 70.2555 11.8505 0
11.4454 70.8213 11.6338 0
12.4032 69.9626 12.0551 0
12.1838 70.4869 12.3094 0
12.1153 71.0017 12.3977 0
11.4405 72.2817 11.9053 0
11.6946 72.6409 11.6868 0
11.3574 71.6055 11.902 0
11.7591 71.5661 12.1342 0
12.214 71.6678 12.4293 0
12.0073 73.0489 11.3401 0
10.1463 72.7898 10.6635 0
9.62485 72.4831 10.5347 0
11.4025 73.1446 10.6155 0
10.807 73.0053 10.5993 0
12.0697 73.5289 9.85573 0
10.9409 68.9327 7.5662 0
11.3651 68.8012 6.88754 0
9.94239 69.1865 9.03787 0
10.4464 69.049 8.32319 0
10.3465 68.9337 7.63277 0
9.77093 68.9888 7.70955 0
10.238 68.8774 6.98785 0
9.0864 69.9854 10.1544 0
9.48171 69.4558 9.64488 0
8.86918 71.7058 10.6196 0
8.95194 70.908 10.4139 0
8.61618 70.396 10.139 0
8.11171 70.8198 10.1717 0
8.32159 69.8421 9.77023 0
9.28108 68.8719 8.37483 0
9.22045 68.8903 7.71608 0
9.37569 69.0688 9.01161 0
8.76619 68.9079 9.05757 0
8.19613 69.2669 9.11849 0
8.65982 68.899 7.76173 0
9.13591 69.0294 7.10107 0
7.59394 69.7157 9.21455 0
8.10049 68.9704 8.49052 0
8.09723 69.0545 7.82718 0
7.53659 69.3231 7.85654 0
8.04078 69.1411 7.19009 0
9.5841 72.58 9.92319 0
9.20089 72.1572 10.3133 0
9.42059 72.8058 9.51997 0
9.31812 73.1049 9.01898 0
8.81318 72.5299 9.59954 0
9.10422 73.317 8.57538 0
8.84403 73.4916 8.15643 0
8.33371 72.8611 8.77593 0
8.56076 73.7559 7.77814 0
7.81404 73.5409 8.04989 0
6.96024 69.584 8.61236 0
6.89305 69.5098 7.90534 0
7.32199 70.5897 9.75058 0
7.13925 70.0816 9.20968 0
6.71755 70.3534 9.08632 0
6.54655 71.1384 9.49594 0
6.28542 70.5835 8.90237 0
8.20839 71.4753 10.1817 0
7.80088 71.0132 9.97187 0
8.62985 71.8783 10.3284 0
8.36491 72.0349 10.0838 0
8.12943 72.2009 9.75681 0
7.04569 71.4636 9.59941 0
6.7038 71.6783 9.38082 0
7.39999 71.2737 9.82032 0
7.55244 71.8221 9.71357 0
7.82724 72.295 9.39139 0
6.89399 72.1673 9.16038 0
6.31248 71.9495 9.2248 0
7.51211 72.4012 9.04485 0
7.27936 72.8506 8.71409 0
7.03234 73.3316 8.37959 0
6.43052 69.7748 7.70786 0
6.84003 69.5566 7.17191 0
5.89618 70.8165 8.68516 0
6.06115 70.1039 8.2296 0
6.02072 70.1417 7.42949 0
5.6505 70.5047 7.07951 0
5.96268 70.2869 6.60276 0
6.11645 72.3944 8.84444 0
5.79279 71.6285 9.0822 0
6.50118 73.1027 8.39678 0
6.04943 72.8274 8.25989 0
5.65237 72.3737 7.79061 0
5.46745 70.813 7.47325 0
5.25232 70.746 6.65639 0
5.61679 71.0976 8.28807 0
5.46659 71.4384 7.7192 0
5.16437 71.6958 7.21266 0
4.813 70.9759 6.17337 0
5.08101 70.7168 5.72018 0
4.83503 71.4659 6.42102 0
4.35166 71.0802 5.65266 0
4.33491 70.9887 4.6877 0
15.2382 67.0418 7.77037 0
14.6052 66.3496 7.89553 0
16.324 68.3629 7.58306 0
15.8033 67.7785 7.65 0
15.3054 67.5364 7.16016 0
15.3973 67.7957 6.44706 0
14.8737 66.9376 6.56406 0
16.9131 68.9475 7.24527 0
16.8109 68.5976 7.37852 0
16.7008 69.5362 6.95145 0
16.8757 69.2703 7.12013 0
16.9956 69.0886 6.4372 0
17.0596 69.2341 5.57578 0
16.951 68.8514 5.7728 0
15.9336 68.407 6.26056 0
15.4719 67.98 5.65459 0
16.4698 68.4866 6.8022 0
16.5497 68.5979 6.00921 0
16.496 68.7172 5.17898 0
15.4495 68.1264 4.88784 0
14.9411 67.3703 5.07195 0
16.4083 68.8152 4.34598 0
15.9258 68.5979 4.63438 0
15.384 68.1839 4.06556 0
15.266 68.318 3.30321 0
14.7893 67.73 3.55152 0
15.9044 69.5547 6.61554 0
16.4025 69.596 6.75203 0
14.8579 69.4502 6.3828 0
15.4127 69.5278 6.47748 0
15.6838 69.6526 5.83923 0
15.4358 69.7345 5.0425 0
15.928 69.7556 5.17504 0
13.6619 69.2233 6.25217 0
14.274 69.3551 6.30339 0
12.3854 68.8865 6.23953 0
13.0196 69.0549 6.24227 0
13.4508 69.3344 5.50175 0
13.2143 69.4265 4.71701 0
13.8034 69.5412 4.75482 0
14.9124 69.6793 4.90441 0
15.148 69.7831 4.22933 0
14.62 69.5443 5.6203 0
14.368 69.6244 4.82223 0
14.1077 69.677 4.01904 0
14.78 69.8395 3.38335 0
15.2582 69.8648 3.50778 0
13.8086 69.8557 3.29095 0
14.3255 69.8959 3.35506 0
14.4563 70.0037 2.65469 0
14.1122 70.6561 2.1581 0
14.5483 70.6323 2.20704 0
15.6002 68.7721 2.9494 0
15.0281 68.5251 2.47162 0
16.5972 69.0879 4.09557 0
16.1824 68.9269 3.48258 0
15.8737 69.1067 2.59923 0
15.8812 69.4564 2.40557 0
15.6163 69.3041 1.83279 0
16.8925 69.508 5.42282 0
16.8999 69.351 4.72664 0
16.65 69.5939 6.10698 0
16.4003 69.6861 5.30487 0
16.1139 69.7667 4.49803 0
16.1018 69.5709 3.0473 0
15.7262 69.9007 2.29768 0
16.4885 69.4387 3.88127 0
16.1283 69.6698 3.77359 0
15.7079 69.8191 3.65531 0
15.3267 70.0313 2.16964 0
15.3438 70.1955 1.54231 0
15.3116 69.8593 2.80813 0
14.9387 70.3542 2.17557 0
14.576 71.0573 1.73439 0
14.6957 68.7693 1.74098 0
14.2188 68.2753 2.17808 0
15.3536 69.5053 1.14993 0
15.0742 69.1477 1.39344 0
14.1286 69.1973 1.34194 0
13.5161 69.5752 0.95557 0
13.1858 68.9421 1.20954 0
14.9612 70.5682 1.14578 0
15.2468 69.9619 1.02887 0
14.1959 71.4824 1.34378 0
14.5736 71.0652 1.26766 0
14.584 70.9282 0.805184 0
14.072 71.0784 0.45941 0
14.3219 70.6108 0.283722 0
13.8724 69.9636 0.635991 0
12.9517 69.5881 0.482349 0
14.9604 69.7659 0.569796 0
14.2901 70.0558 0.218625 0
13.6161 70.2532 -0.144952 0
12.2881 69.3781 0.0228043 0
12.1031 68.8993 0.177526 0
12.7502 70.1102 -0.454302 0
12.5415 69.8394 -0.175127 0
11.5758 68.8161 -0.619851 0
10.8177 67.9319 -1.3001 0
10.9508 67.667 -1.18166 0
11.1981 68.7811 6.2323 0
11.782 68.8862 6.21689 0
10.0697 68.8022 6.36493 0
10.6219 68.6937 6.27478 0
11.0253 68.7137 5.59358 0
10.8003 68.8743 4.85207 0
11.3877 68.9852 4.79764 0
9.02956 69.1725 6.46912 0
9.55943 69.0705 6.42993 0
8.00765 69.4335 6.50608 0
8.51609 69.2668 6.49345 0
8.92759 69.3792 5.81856 0
8.70879 69.5785 5.12559 0
9.20131 69.4615 5.09477 0
10.2321 69.0111 4.94387 0
10.5841 69.2893 4.14221 0
9.93408 68.8924 5.71251 0
9.71251 69.2809 5.02571 0
9.48303 69.589 4.31451 0
10.2768 69.7988 3.50513 0
10.8542 69.6579 3.39898 0
9.18748 69.9096 3.61672 0
9.71366 69.8562 3.56695 0
9.94366 70.234 2.8671 0
9.46419 70.4791 2.18533 0
10.0102 70.4818 2.13734 0
6.8725 69.8949 6.30785 0
7.42463 69.6582 6.46336 0
5.88967 70.3938 5.66869 0
6.38123 70.2076 6.0492 0
6.83275 70.1804 5.45556 0
6.6744 70.1653 4.69536 0
7.1963 70.0233 4.8975 0
4.98978 70.6554 4.77025 0
5.37427 70.4744 5.23748 0
4.66058 70.7898 4.29049 0
4.96609 70.4205 4.06632 0
5.32144 70.1209 3.83401 0
6.17096 70.1822 4.4903 0
6.54961 70.0477 3.96571 0
5.77771 70.3635 4.81418 0
5.69139 70.2246 4.12853 0
5.67381 69.8438 3.56616 0
6.25615 69.8408 3.32528 0
6.74217 69.8243 3.508 0
5.91656 69.4501 3.25843 0
6.11981 69.2487 2.78676 0
6.48509 69.0444 2.54622 0
8.92581 70.4782 2.23181 0
8.87862 70.6295 1.53918 0
8.6757 70.001 3.67256 0
8.85756 70.2618 2.94234 0
8.46523 70.3307 2.31637 0
7.93445 70.2379 2.31774 0
8.04047 70.303 1.75857 0
8.20594 69.7555 5.10672 0
8.46575 69.775 4.40615 0
7.93367 69.7311 5.80195 0
7.73423 69.8485 5.05242 0
7.51846 69.9477 4.28579 0
7.77583 70.0918 2.92687 0
7.39322 70.1352 2.30399 0
8.12715 69.9221 3.66038 0
7.65118 69.9976 3.60442 0
7.17194 70.0074 3.54487 0
7.09246 69.7992 2.41364 0
7.24113 69.8493 1.87666 0
6.87459 69.8638 2.87618 0
6.70128 69.5601 2.40117 0
6.77656 68.8227 2.12757 0
8.40942 70.6195 1.03068 0
8.85827 70.7688 0.966626 0
7.56364 70.2844 1.18409 0
8.00726 70.4577 1.12031 0
7.91781 70.5461 0.596599 0
7.55966 70.2233 0.217695 0
7.93351 70.574 0.172897 0
7.19032 69.2834 1.57398 0
7.41802 69.8075 1.4131 0
7.24026 68.4894 2.02701 0
7.56948 68.0641 1.78248 0
7.86248 67.305 1.53146 0
7.72174 69.3555 0.617765 0
8.25902 68.6886 0.501687 0
7.46382 69.7698 0.935189 0
7.87746 68.4011 1.09049 0
8.23613 66.6414 1.33923 0
8.67316 66.7952 0.755702 0
8.71129 67.7409 0.369644 0
8.59904 65.8986 1.14915 0
8.62036 65.0025 0.904055 0
8.44088 63.9819 0.718177 0
10.6655 68.33 -1.36802 0
10.5486 66.6483 -2.27916 0
12.7443 70.4327 -0.462251 0
11.7472 69.697 -0.840696 0
10.7383 68.5334 -1.41767 0
10.6652 68.693 -1.49121 0
10.2021 66.5575 -2.33959 0
13.5553 71.3634 0.645926 0
13.3272 70.9226 0.0977203 0
13.6813 71.6477 1.42402 0
13.6474 71.5595 1.06301 0
13.0383 71.5749 0.788054 0
12.5416 71.6365 0.744245 0
12.3071 71.2841 0.244179 0
11.5056 70.2452 -0.942143 0
10.5111 68.7993 -1.47367 0
12.467 70.6982 -0.305103 0
11.9789 70.8131 -0.338072 0
11.5126 70.8726 -0.395261 0
10.4714 68.7375 -1.38324 0
9.91328 66.6764 -1.85263 0
11.0366 70.9241 -0.424053 0
10.7409 70.1984 -0.920155 0
10.1335 68.5498 -1.33562 0
9.77296 68.2931 -1.30532 0
9.68154 66.454 -1.59695 0
13.5875 70.6623 2.1348 0
13.6493 71.3492 1.73639 0
13.25 69.7785 3.24086 0
13.484 70.0324 2.58258 0
13.0112 70.6111 2.11802 0
12.4331 70.5436 2.09576 0
12.4934 71.3052 1.72953 0
12.6033 69.2892 4.72118 0
12.9774 69.5063 3.9194 0
12.2037 69.0252 5.51015 0
11.9823 69.1352 4.75194 0
11.7557 69.2424 3.97799 0
12.2941 69.9097 2.56263 0
11.8509 70.291 2.04298 0
12.6477 69.7035 3.23244 0
12.0478 69.5801 3.25733 0
11.4439 69.5364 3.30544 0
11.259 70.329 2.10232 0
11.3429 70.7199 1.62371 0
11.1028 70.0441 2.70499 0
10.666 70.4688 2.19811 0
10.1011 70.6681 1.60302 0
9.98218 69.7303 -0.834123 0
9.65501 68.0117 -1.13262 0
11.263 71.189 0.104494 0
10.6251 70.6852 -0.391334 0
10.1837 70.4327 -0.363769 0
10.335 70.757 0.158838 0
9.72861 70.1456 -0.351628 0
12.5723 71.6847 1.09463 0
11.9776 71.507 0.657661 0
13.1156 71.6657 1.4057 0
12.5413 71.6618 1.38756 0
11.9682 71.4714 1.31438 0
10.871 71.2304 0.599724 0
10.1827 71.1339 0.436823 0
11.4121 71.386 0.598921 0
11.4164 71.3882 0.948925 0
11.3979 71.1926 1.27171 0
10.1197 71.0261 0.729821 0
9.49917 71.0432 0.294425 0
10.8063 70.9205 1.23935 0
10.1218 70.8236 1.09044 0
9.48803 70.7938 1.03439 0
9.56572 67.6138 -0.956622 0
9.38074 65.8912 -1.23696 0
9.42893 69.8837 -0.290991 0
9.5998 69.0202 -0.637243 0
9.47843 67.1252 -0.777862 0
9.30328 66.6067 -0.53038 0
8.96614 65.0961 -0.804283 0
8.81879 70.9489 0.125027 0
9.11112 70.4879 -0.077641 0
8.82508 70.8985 0.530721 0
8.37789 70.7842 0.169316 0
8.34274 70.1372 -0.0159921 0
9.38081 68.1057 -0.32695 0
9.0936 66.0482 -0.275153 0
9.09673 69.6522 -0.250027 0
8.77958 69.3449 -0.215235 0
8.72138 68.6615 0.0330214 0
8.86009 65.3679 0.0243531 0
8.51797 64.1891 -0.19162 0
8.9845 66.602 0.221244 0
8.68163 64.6742 0.354768 0
7.90351 63.0653 0.578046 0
10.2902 64.6655 -3.03639 0
10.5654 65.1152 -2.88125 0
9.83983 64.661 -2.66773 0
10.0365 64.569 -2.9551 0
9.91597 63.1278 -3.06593 0
9.66887 62.2229 -2.82103 0
10.08 62.3905 -2.93548 0
9.54383 64.7712 -2.1639 0
9.70238 64.7525 -2.40226 0
9.16496 64.5762 -1.72679 0
9.35827 64.6996 -1.94356 0
8.94406 63.4076 -2.10719 0
8.50359 62.3137 -1.72226 0
8.755 62.2858 -2.00123 0
9.3533 62.2352 -2.57699 0
9.45893 61.5278 -2.48871 0
9.35271 63.224 -2.6482 0
9.01641 62.2517 -2.2669 0
8.75019 61.4024 -1.83259 0
9.24356 60.8621 -1.9886 0
9.62366 60.9094 -2.29549 0
8.61545 60.8105 -1.2267 0
8.8851 60.773 -1.65372 0
9.03516 60.1555 -1.41268 0
9.14152 59.7309 -0.450063 0
9.34473 59.6167 -0.807775 0
8.76645 64.0815 -1.25436 0
8.96809 64.3706 -1.50343 0
8.24111 63.4552 -0.645522 0
8.52743 63.7731 -0.972114 0
7.90486 62.8934 -0.824209 0
7.25809 61.9047 -0.153896 0
7.60717 62.0756 -0.59463 0
7.53371 62.72 0.248273 0
7.90369 63.1287 -0.214454 0
7.02489 62.3242 0.768816 0
6.44755 61.6525 0.999496 0
6.33915 61.0014 1.35606 0
6.90713 61.6261 0.252683 0
6.80757 60.9441 0.510645 0
7.14246 62.3247 -0.0421089 0
6.58863 61.3188 0.747762 0
6.40484 60.4 1.65701 0
6.95476 60.2512 1.51767 0
7.22895 60.5987 1.02982 0
6.69972 59.833 2.0455 0
7.0434 59.3279 2.40219 0
7.28384 58.6943 2.6135 0
8.93978 59.8376 -0.0238403 0
9.31181 59.3059 0.588275 0
8.39467 60.9297 -0.747434 0
8.55316 60.3329 -0.519926 0
8.73153 59.9434 0.475005 0
8.44076 59.8677 0.876956 0
8.8259 59.3201 1.36946 0
8.21898 62.322 -1.3658 0
8.12503 61.3834 -1.134 0
8.47835 63.2531 -1.51887 0
7.91947 62.2154 -0.991194 0
7.49585 61.2656 -0.3534 0
8.10909 60.4062 0.482582 0
8.1799 59.7773 1.33347 0
8.08342 60.8962 -0.36155 0
7.81857 60.8387 0.0992574 0
7.56212 60.7597 0.591039 0
7.94071 59.6079 1.8284 0
8.22129 58.9964 2.16205 0
7.63861 60.2104 1.50026 0
7.59829 59.162 2.19633 0
7.54108 58.0481 2.89629 0
9.15406 58.4112 1.39541 0
9.37543 58.3349 1.07808 0
8.58943 58.3416 2.04516 0
8.88055 58.4123 1.67532 0
8.92553 57.4535 2.12196 0
8.69549 56.4374 2.95049 0
8.95436 56.418 2.70867 0
8.06546 57.7926 2.80993 0
8.31658 58.1268 2.43244 0
7.77452 57.3569 3.19383 0
7.93277 56.5964 3.52066 0
8.02459 55.8054 3.89473 0
8.45775 56.3146 3.20328 0
8.57004 55.3734 3.74844 0
8.40131 57.2556 2.72652 0
8.22814 56.11 3.51249 0
8.18342 55.0889 4.30692 0
8.62625 54.6302 4.50755 0
8.83752 54.7097 4.31195 0
8.48258 54.5226 4.77888 0
8.77527 54.0039 5.20696 0
9.10944 53.6903 5.55327 0
8.69885 63.8802 25.5454 0
8.02973 64.0382 26.5046 0
10.2792 63.7585 24.4887 0
9.5119 63.8001 25.0038 0
11.2743 64.3624 23.1022 0
10.8508 64.1022 23.9003 0
9.99096 63.2402 24.1739 0
9.58727 62.8709 23.4442 0
8.84362 63.1185 24.0548 0
7.21496 63.5496 25.5416 0
6.10675 63.4275 25.759 0
8.33318 63.6304 25.2464 0
7.99216 63.3559 24.6387 0
7.68733 63.0424 23.9898 0
7.41227 62.6101 23.2704 0
6.59685 62.9708 23.9873 0
5.28529 62.5211 23.0296 0
12.1171 64.446 21.4336 0
11.6875 64.4857 22.3385 0
12.4098 64.7955 19.4801 0
12.4151 64.5194 20.397 0
11.776 63.7453 20.8655 0
11.2938 63.1269 20.2469 0
11.0713 63.0197 21.1117 0
11.916 65.4088 17.3807 0
12.2133 65.1238 18.4662 0
12.2606 64.8951 15.2302 0
12.0395 65.2086 16.2912 0
11.2123 64.9649 16.8106 0
10.5629 64.4656 16.2114 0
10.5763 64.4429 17.2863 0
11.2649 63.5148 19.2708 0
10.8451 62.4226 19.4678 0
11.712 64.3903 18.9101 0
10.8552 64.0706 18.2869 0
10.106 63.7508 17.6671 0
10.1664 61.9356 18.871 0
10.2529 61.51 19.6976 0
9.32207 63.5516 17.1567 0
9.79268 62.6796 17.9754 0
9.52637 61.4005 18.3842 0
8.69397 61.0969 17.9632 0
8.97075 60.3919 18.7691 0
12.3366 65.1714 13.1334 0
12.3254 64.9817 14.1591 0
12.6441 64.8046 11.4283 0
12.4565 65.082 12.2423 0
11.7085 64.9983 12.6988 0
11.1483 64.8018 12.356 0
11.0328 64.3978 13.268 0
13.1613 65.0336 9.99945 0
12.8785 64.8736 10.6829 0
13.6162 65.7543 8.80637 0
13.4369 65.1573 9.32297 0
12.6941 64.6732 9.70243 0
12.0838 64.6015 9.57015 0
12.0009 64.1556 10.0767 0
11.3905 64.5767 11.5207 0
10.5661 64.5986 12.0461 0
12.1681 64.3332 11.0417 0
11.7287 64.0828 10.7443 0
11.2431 63.8746 10.4945 0
10.0279 64.22 11.7932 0
9.75714 64.2687 12.5688 0
10.5716 64.1221 10.3264 0
10.3526 63.9716 11.0286 0
9.48349 63.9765 11.5494 0
8.88886 63.9359 11.3196 0
8.63202 63.9112 12.0378 0
8.13176 62.0983 17.1708 0
7.80762 60.8829 17.5462 0
9.05468 64.1947 16.3019 0
8.53001 63.2475 16.7517 0
7.95673 62.8108 16.3671 0
7.90299 63.3572 15.5563 0
7.34003 62.4387 15.9036 0
10.6906 64.365 15.1889 0
9.84128 64.3931 15.7457 0
11.5818 64.5316 14.7116 0
10.9051 64.2001 14.218 0
10.2265 64.178 13.8126 0
8.59447 64.0583 14.9225 0
8.11302 63.6546 14.5193 0
9.15731 64.4116 15.314 0
9.32296 64.4192 14.3596 0
9.55133 64.2374 13.4307 0
8.32524 63.7967 13.5809 0
7.74312 63.1413 14.0214 0
9.01116 64.029 13.0773 0
8.45639 63.8765 12.7872 0
7.98868 63.5327 12.4797 0
7.09069 60.614 17.1275 0
7.25897 59.9034 18.0046 0
6.89832 61.965 15.382 0
6.87144 61.3979 16.2844 0
7.18456 62.2794 14.4808 0
7.60836 63.0863 12.1675 0
7.47361 62.9636 12.9084 0
6.0449 62.1072 22.4149 0
8.19715 62.2691 22.6618 0
7.15422 62.1218 22.6122 0
6.83942 61.5448 21.9019 0
7.54363 60.944 21.4311 0
6.4616 60.8648 21.2722 0
10.0996 63.1477 22.594 0
9.19515 62.5216 22.6922 0
10.9331 63.7973 22.5024 0
10.6282 63.0613 21.8476 0
10.3208 62.3268 21.1655 0
8.54774 61.1531 21.4909 0
8.22449 60.3944 20.8904 0
8.88461 61.8502 22.088 0
9.46274 61.7089 21.3143 0
9.96954 61.5183 20.5321 0
8.77299 60.0975 20.1162 0
7.89018 59.6383 20.2711 0
9.61957 60.6802 19.9135 0
9.00631 60.0701 19.4702 0
8.28285 59.5932 19.12 0
5.32024 61.0983 20.9249 0
6.02798 60.3645 20.5764 0
5.53279 59.8808 19.9998 0
6.72802 59.6695 20.2087 0
6.40295 58.978 19.4811 0
7.2436 59.2354 19.7941 0
7.4029 59.1703 19.3628 0
7.46996 59.31 18.7854 0
6.57114 59.1879 18.417 0
13.9713 66.4568 7.60976 0
13.8097 66.1634 8.26321 0
14.2 66.8661 6.16907 0
14.106 66.7092 6.90803 0
13.3143 66.5147 7.29236 0
12.6279 66.3127 7.15917 0
12.5136 66.2186 7.89581 0
14.2295 67.1481 4.62423 0
14.2379 67.0008 5.40138 0
14.017 67.5136 3.11923 0
14.144 67.3155 3.86475 0
13.3943 67.0175 4.23698 0
12.6272 66.7664 4.04031 0
12.636 66.7741 4.85436 0
12.713 66.3994 6.39744 0
11.9605 66.0878 7.02591 0
13.4736 66.7398 5.77943 0
12.7044 66.5871 5.6298 0
11.896 66.4778 5.50867 0
11.4603 65.5868 6.77094 0
11.4046 65.5003 7.50466 0
11.3484 65.9425 5.25741 0
11.4548 65.7459 6.04116 0
10.9666 65.1347 6.5377 0
10.5265 64.6533 6.23344 0
10.5318 64.5127 6.96222 0
13.262 68.0254 1.91007 0
13.7638 67.643 2.44413 0
12.3733 68.3684 0.803782 0
12.8541 68.1689 1.28539 0
12.4524 67.4045 1.39721 0
11.7151 66.6213 1.06152 0
12.1268 66.4819 1.71187 0
11.2402 67.7924 -0.478714 0
11.8793 68.2609 0.148233 0
10.7149 66.5686 -2.02337 0
10.9158 67.342 -1.18256 0
10.8151 66.7642 -1.27359 0
10.725 66.041 -1.78368 0
10.8154 66.3854 -1.07806 0
11.3463 66.6757 0.312543 0
11.0338 65.8231 0.652868 0
11.5205 67.3826 0.111078 0
10.8418 66.5161 -0.362706 0
10.6524 65.7905 -0.843583 0
10.6583 65.1759 0.217439 0
11.009 65.059 1.02276 0
10.7126 65.1128 -1.32389 0
