#!ascii - generated by CreateLabelFiles project 
2024 3848
10.3412 78.9811 -4.05686 0
11.4145 82.6108 -5.50361 0
10.6931 81.7388 -5.1154 0
10.9454 80.9828 -5.42743 0
10.5279 80.5471 -5.37053 0
10.9098 81.3511 -5.35612 0
11.6506 81.9447 -5.90409 0
10.6256 81.2837 -5.88816 0
10.0137 80.0523 -5.12712 0
11.7312 91.2949 1.82216 0
10.993 92.6174 2.91497 0
12.5788 87.8106 0.0121359 0
11.8642 89.4059 0.792917 0
12.0088 90.1089 1.54421 0
12.5378 89.2209 1.49908 0
11.9026 90.7726 2.63831 0
13.1301 84.3016 -0.338803 0
13.0177 86.1706 -0.390957 0
13.1186 80.9147 -0.897894 0
13.2467 82.336 -0.190095 0
13.5134 83.1208 -0.227245 0
13.4725 81.8036 0.431556 0
13.5665 83.7943 0.251376 0
13.1817 87.5124 0.511818 0
12.9464 88.3465 1.69219 0
13.1837 86.8213 -0.0982808 0
13.3999 85.7543 0.189863 0
13.533 84.577 0.932012 0
13.1583 87.5801 2.16583 0
12.9336 89.3779 2.92855 0
13.3219 83.6623 1.39294 0
13.3216 85.6147 1.6585 0
13.1417 86.7681 2.44324 0
12.7464 86.2373 2.39772 0
12.8513 88.0462 3.07019 0
11.2918 79.2244 -2.32042 0
12.3231 79.8523 -1.75214 0
9.83745 78.8685 -3.75314 0
10.4754 78.8477 -3.09625 0
10.8441 78.9345 -2.18973 0
10.2868 78.8426 -2.02989 0
11.1108 78.8332 -1.29602 0
9.44096 79.8442 -4.8281 0
9.65538 79.0391 -4.33717 0
9.18913 81.0237 -5.25284 0
8.78977 79.9247 -4.45002 0
8.4952 79.2216 -3.61331 0
9.51125 78.8319 -2.64699 0
9.68472 78.7407 -1.87468 0
9.42327 78.8895 -3.4801 0
8.90404 78.9695 -3.1685 0
8.28703 78.9083 -2.80405 0
9.01085 78.6457 -1.63571 0
9.84933 78.712 -1.12956 0
8.19202 78.6184 -2.0299 0
8.17029 78.6163 -1.39258 0
8.13886 78.7376 -0.851694 0
12.6269 84.4457 1.86688 0
12.3934 85.6974 2.31383 0
12.9964 82.0353 1.21148 0
12.8469 83.1757 1.53375 0
12.2236 82.8759 1.47097 0
11.8028 81.4884 1.08823 0
11.5376 82.6706 1.35279 0
12.9208 80.3413 -0.136054 0
13.005 81.0626 0.556932 0
12.6566 80.0193 -0.940789 0
11.9271 79.3746 -0.64474 0
11.3641 78.8747 -0.428595 0
11.8319 80.4094 0.425501 0
11.1356 80.2424 0.260405 0
12.4382 80.6654 0.536422 0
11.6146 79.5872 -0.070166 0
10.7088 78.868 -0.473719 0
10.2015 79.588 -0.187191 0
10.3075 80.2294 0.336545 0
9.97847 79.028 -0.579194 0
9.16872 79.1416 -0.598009 0
8.2115 79.114 -0.348317 0
11.665 85.3923 2.18653 0
11.8505 86.9238 2.97375 0
10.7329 82.6307 1.20649 0
11.2059 83.877 1.64991 0
10.8225 85.1452 2.08698 0
10.0346 84.8871 2.05499 0
10.3857 86.1479 2.75246 0
9.41674 80.2514 0.431728 0
10.1559 81.4282 0.779065 0
8.29146 79.6347 0.179371 0
8.3695 80.3101 0.67189 0
8.2038 81.2916 1.09887 0
9.73603 83.5068 1.75446 0
9.27892 84.4739 2.29802 0
9.95921 82.4994 1.24425 0
9.00958 82.424 1.36663 0
8.02404 82.191 1.66396 0
8.47829 84.002 2.71088 0
8.84835 85.4409 2.8002 0
7.89002 82.8028 2.6852 0
7.52264 83.5031 3.37905 0
6.9772 84.2744 3.73116 0
4.24652 70.3666 16.4005 0
3.80297 73.2914 16.9747 0
2.79583 76.2269 16.4813 0
3.93628 74.3375 16.9358 0
4.4153 72.775 16.9185 0
3.04024 77.3134 16.263 0
3.47115 75.7941 16.762 0
4.13597 75.3442 16.9494 0
4.36787 76.4025 16.9417 0
4.82485 74.822 16.9993 0
0.155646 82.7677 19.6056 0
0.705718 82.4665 19.3262 0
3.96622 77.8421 16.5617 0
4.77997 77.5416 16.7324 0
2.57865 78.458 16.2559 0
3.31258 78.2484 16.1974 0
3.55349 79.0726 16.3328 0
2.95284 79.8735 16.862 0
3.84674 79.7668 16.7394 0
2.24536 79.9877 16.9608 0
2.40911 80.6327 17.3721 0
2.11202 79.3149 16.5034 0
1.5149 80.1498 17.1613 0
1.93773 81.4612 17.8977 0
2.63821 81.2968 17.8044 0
1.17626 81.4689 18.1695 0
1.3758 82.0522 18.5507 0
1.52572 82.672 19.042 0
5.31586 78.6504 16.4347 0
5.44545 77.0433 16.968 0
4.15789 80.4042 17.1104 0
4.78083 79.6221 16.6778 0
5.69695 79.369 16.7348 0
6.05733 79.8728 17.0938 0
6.57126 78.8768 16.9441 0
2.8704 81.9779 18.2594 0
3.37814 81.1571 17.7218 0
1.67039 83.2249 19.5513 0
2.37881 82.8589 18.8062 0
3.0806 82.6796 18.7516 0
3.29015 83.2754 19.3446 0
3.80751 82.3812 18.7709 0
5.33307 80.7817 17.6182 0
6.24696 80.4394 17.684 0
4.33448 81.0196 17.6289 0
4.49707 81.571 18.2402 0
4.67234 82.1274 18.8214 0
6.43657 81.0323 18.3317 0
7.22105 80.0708 17.7783 0
4.83358 82.693 19.4304 0
5.63297 81.8862 18.8448 0
6.63098 81.618 18.8889 0
6.77978 82.1944 19.4038 0
7.58464 81.2773 19.0061 0
-2.30221 92.149 6.03281 0
-2.23233 93.9043 5.89715 0
5.83623 82.9931 19.9775 0
6.75999 82.7424 19.9248 0
4.07138 83.5902 19.9058 0
4.88503 83.2263 19.9551 0
4.91685 83.8069 20.512 0
4.15861 84.6726 20.7387 0
4.85239 84.4207 20.8925 0
2.55356 83.9081 19.8837 0
3.32925 83.9073 19.8541 0
0.954319 83.4533 20.1174 0
1.74901 83.6731 19.9997 0
1.80684 84.1712 20.3703 0
1.27871 84.6342 20.0463 0
1.95927 84.8215 20.2998 0
3.40749 84.9364 20.5932 0
3.44526 85.3646 20.7453 0
3.33414 84.5187 20.3725 0
2.70107 84.987 20.3397 0
2.06628 85.4969 20.1494 0
2.73644 86.2245 19.9743 0
3.38217 86.1655 20.376 0
1.46564 86.0368 19.4467 0
2.09558 86.1806 19.6896 0
2.10452 86.905 19.3176 0
1.52384 87.5926 18.9186 0
2.07056 87.7405 19.1531 0
0.320955 83.2512 19.7805 0
-0.75304 84.0708 18.7074 0
1.00677 87.3629 18.5667 0
1.17671 87.916 18.3201 0
0.811316 85.8708 19.1412 0
0.903875 86.594 18.8239 0
0.489487 87.0796 18.1397 0
-0.0655434 86.8041 17.7288 0
0.115563 87.3285 17.4892 0
0.59329 84.4664 19.7029 0
0.745627 85.1597 19.4551 0
0.455217 83.7925 19.8808 0
-0.0657416 84.2855 19.2495 0
-0.579553 84.7294 18.4983 0
-0.219339 86.0686 18.0149 0
-0.66729 86.5029 17.334 0
0.230366 85.6235 18.7267 0
-0.390072 85.3698 18.2787 0
-1.04362 85.0921 17.8199 0
-1.274 86.1762 16.9225 0
-1.06883 86.7179 16.7019 0
-1.46871 85.4507 17.1658 0
-1.85562 85.7823 16.5324 0
-2.18403 85.9414 15.9484 0
0.92858 87.9886 17.6984 0
1.38584 88.3834 18.0498 0
-0.270631 87.3995 16.8871 0
0.362873 87.6954 17.3021 0
0.773455 87.7704 17.0987 0
0.752383 87.2012 16.4596 0
1.29795 87.7191 16.8096 0
-1.39006 86.7232 16.1406 0
-0.869902 87.0885 16.4927 0
-1.92476 86.3487 15.7649 0
-1.60205 86.5271 15.5599 0
-1.61583 86.1237 14.8978 0
-1.073 86.2622 15.3196 0
0.107278 86.9033 16.0572 0
0.72052 86.6451 15.8217 0
-0.514967 87.2005 16.2785 0
-0.509355 86.592 15.6903 0
-0.51931 86.0054 15.0743 0
0.646007 86.1414 15.1986 0
1.22667 86.6077 15.4747 0
-0.537113 85.6583 14.3317 0
0.0414353 85.8064 14.8173 0
0.577504 85.815 14.4763 0
0.520018 86.1075 13.5059 0
1.05424 86.4102 13.7994 0
-0.032754 85.9141 13.0615 0
0.468867 86.3941 12.57 0
-1.11291 85.5623 13.8661 0
-0.551883 85.4572 13.537 0
-0.647566 85.7476 12.6805 0
-1.29725 85.6596 12.2634 0
-0.754012 86.044 11.8602 0
-2.17658 85.9257 14.4969 0
-1.63823 85.8082 14.1747 0
-1.83564 85.32 12.6693 0
-1.72254 85.5434 13.4253 0
0.349737 86.7914 11.7388 0
0.988616 86.922 12.018 0
-0.852738 86.4147 11.1284 0
-0.274045 86.6449 11.4004 0
0.219094 87.2074 10.9361 0
0.105633 87.7613 10.2914 0
0.765688 87.7409 10.48 0
-1.53065 86.1226 10.9587 0
-0.494656 87.6574 10.1562 0
0.015024 88.4069 9.73492 0
-0.91666 86.7459 10.469 0
-1.05393 87.2876 9.95291 0
-0.0234041 89.1098 9.17083 0
0.640281 89.0417 9.24774 0
-0.631145 88.8385 8.96613 0
0.0109559 89.5358 8.46306 0
-0.0479806 90.1591 7.95143 0
0.560475 90.3734 8.21408 0
-0.635522 89.6909 7.61467 0
-0.06999 90.6 7.39597 0
-1.3096 88.9279 8.17439 0
-0.0921833 91.1045 6.9052 0
0.466172 91.6758 7.27698 0
-0.163479 91.6478 6.57799 0
-0.325653 92.1469 6.51305 0
0.381876 92.8981 6.58614 0
-1.02572 91.3655 6.49374 0
-0.571382 92.6668 6.73406 0
-1.8058 90.9668 6.41251 0
-0.771892 93.3672 6.63194 0
-0.0847639 93.9674 7.02121 0
-1.40443 92.7824 6.13348 0
-1.05295 94.056 6.58679 0
-0.684723 95.3677 7.06325 0
6.60009 83.2918 20.4442 0
7.60197 82.3381 20.0033 0
4.52016 85.2707 21.3623 0
5.41419 84.3226 21.101 0
6.25422 84.0201 21.025 0
5.66366 84.952 21.6451 0
7.11022 83.653 20.8592 0
3.23571 87.0055 20.1426 0
3.93974 86.106 20.9202 0
2.09945 88.4524 18.9315 0
2.60261 87.8876 19.4429 0
3.12606 87.8984 19.856 0
3.0958 88.7113 19.5305 0
3.61673 87.8187 20.3499 0
4.76136 85.9858 21.6129 0
5.12595 85.7835 21.847 0
4.37232 86.063 21.298 0
4.23362 86.8149 21.0843 0
4.07864 87.728 20.773 0
4.91798 86.476 21.5669 0
5.9884 85.3905 21.6191 0
3.9632 88.6556 20.3636 0
4.45426 87.5816 21.0919 0
4.76612 87.3888 21.2968 0
4.70694 88.4833 20.8669 0
5.13005 87.1868 21.5103 0
1.73287 88.6323 17.7533 0
1.78445 88.7635 18.3594 0
1.81586 87.7004 16.5103 0
1.79832 88.226 17.1289 0
2.27165 88.6238 17.4797 0
2.90268 88.6259 17.2152 0
2.81957 88.9544 17.8441 0
1.73318 86.7388 15.0547 0
1.79443 87.1158 15.8179 0
1.54605 87.0584 13.1229 0
1.62909 86.8794 14.0661 0
2.20841 87.2917 14.4675 0
2.69808 87.8611 13.9055 0
2.79346 87.7407 14.8973 0
2.87186 88.2936 16.5296 0
3.44563 88.7228 16.8871 0
2.34047 87.6957 16.1889 0
2.87203 87.8745 15.7781 0
3.35854 88.3794 15.2322 0
3.89714 89.1101 16.3827 0
3.9147 89.272 17.1562 0
3.85853 88.925 14.6164 0
3.88995 88.9914 15.5209 0
4.36626 89.6008 15.7695 0
4.87124 90.0198 15.2195 0
4.76948 90.1623 15.9808 0
4.33635 89.395 20.1037 0
4.65929 89.54 20.2236 0
3.67414 89.2433 19.6649 0
4.05462 89.2702 19.9694 0
4.24012 90.0235 19.4959 0
4.36631 90.4199 19.0861 0
4.66567 90.7207 19.2455 0
2.73895 89.1247 18.9571 0
3.23239 89.2104 19.3068 0
2.2316 89.0227 18.6352 0
2.65052 89.28 18.4137 0
3.34785 89.2745 18.197 0
4.10219 89.9581 18.824 0
4.53331 90.4338 18.3951 0
3.64385 89.4726 19.0815 0
3.82783 89.4541 18.5244 0
3.94 89.4108 17.8747 0
4.66343 90.3577 17.5787 0
4.8686 90.851 17.6451 0
4.32849 89.8351 17.3397 0
4.75 90.2543 16.7774 0
5.13164 90.6663 16.1594 0
4.93385 90.3741 19.7149 0
5.10349 89.3701 20.2128 0
5.00648 91.2694 18.5227 0
5.05191 90.9392 19.3376 0
5.5095 91.1906 19.3938 0
5.84533 91.6079 18.3453 0
6.04173 91.2973 19.2956 0
5.26853 91.2493 16.9874 0
5.06474 91.3262 17.6723 0
5.66586 91.0109 15.662 0
5.45173 91.1484 16.3121 0
5.81398 91.5238 16.3529 0
6.38799 91.915 15.807 0
6.21091 91.8824 16.3666 0
5.79165 91.8341 17.559 0
6.41135 91.8869 17.4839 0
5.29014 91.7772 17.6657 0
5.99227 91.9963 16.9824 0
6.62434 92.3029 16.3581 0
6.9573 92.2521 16.5843 0
7.02406 91.8634 17.2155 0
7.15996 92.9104 15.6795 0
7.03315 92.5944 16.1144 0
7.57734 92.6856 15.8099 0
8.33581 92.8103 15.0219 0
8.27982 92.1219 15.3443 0
1.50464 87.4625 11.4979 0
1.52431 87.2788 12.2785 0
1.2662 88.3529 10.078 0
1.3858 87.8782 10.8155 0
1.91942 88.2046 11.1834 0
2.32591 88.9963 10.8841 0
2.48099 88.5382 11.4074 0
1.10805 89.9489 9.06313 0
1.17806 89.1453 9.52603 0
1.06598 91.3665 8.18653 0
1.10486 90.6879 8.61346 0
1.60224 90.9736 9.05298 0
2.22295 91.9891 9.08457 0
2.15155 91.2577 9.50325 0
2.21685 89.71 10.3773 0
2.84303 90.0042 10.749 0
1.67086 89.4256 9.95857 0
2.13935 90.4952 9.90136 0
2.76272 91.5096 9.91955 0
3.37045 91.0012 10.7056 0
3.48004 90.3197 11.1227 0
3.31589 92.5245 10.0905 0
3.31604 91.7537 10.3828 0
3.74404 92.0051 10.8682 0
4.12261 92.9696 11.1368 0
4.18159 92.2168 11.3205 0
1.07776 92.7831 7.30818 0
1.06417 92.0811 7.75709 0
0.967008 94.0439 6.93839 0
1.0468 93.4199 7.03058 0
1.68652 93.9167 7.55859 0
2.22284 95.1963 8.11658 0
2.25556 94.3796 8.2373 0
0.353985 95.3184 7.35524 0
0.722665 94.6343 7.1531 0
0.0535915 96.0948 7.3864 0
0.841481 96.7674 7.72256 0
1.66483 97.3736 8.1593 0
2.10348 95.9038 8.08305 0
2.82446 96.5123 8.62101 0
1.51736 95.2787 7.39223 0
1.89345 96.5799 8.12696 0
2.61708 97.8697 8.49538 0
3.53038 97.7365 9.00256 0
3.39614 96.8457 9.17224 0
3.57374 98.4381 8.83414 0
4.42335 98.7658 9.09821 0
5.03369 98.9272 9.39714 0
4.11848 93.7565 10.9866 0
4.55014 93.9323 11.4068 0
3.32239 93.3442 9.8808 0
3.71103 93.5652 10.455 0
4.15864 94.5834 10.8292 0
4.14237 95.3747 10.5408 0
4.62789 95.5094 11.054 0
2.20602 92.7729 8.81106 0
2.81361 93.0582 9.31318 0
1.67113 92.4351 8.19604 0
2.24493 93.5682 8.46311 0
2.77319 94.7558 8.92676 0
3.74576 95.2936 10.1113 0
4.12338 96.1777 10.2205 0
3.28163 94.1881 9.70613 0
3.28237 95.0739 9.51182 0
3.30787 95.9697 9.32707 0
4.31354 97.1072 9.95615 0
4.58147 97.0287 10.2787 0
3.96803 97.1025 9.61147 0
4.75384 98.1077 9.68034 0
5.41474 98.6764 9.60071 0
5.03901 94.8122 11.6757 0
4.97004 94.0532 11.7705 0
4.99029 96.1697 10.9311 0
5.11058 95.5638 11.4564 0
5.3999 95.4575 11.3715 0
5.76299 95.9581 10.8417 0
5.68907 95.3721 11.2488 0
5.24011 97.3831 10.0397 0
4.92304 96.7917 10.3794 0
5.67789 98.2092 9.67537 0
5.98358 97.7527 9.71703 0
6.65808 97.3959 8.95103 0
5.87043 96.5199 10.3313 0
6.45226 96.1295 9.54179 0
5.37833 96.6578 10.4429 0
6.24488 97.0025 9.67643 0
7.49945 96.8489 7.94535 0
8.00129 96.1429 7.7625 0
7.29331 95.6356 8.57673 0
8.40851 95.9206 6.91325 0
9.01912 95.0154 5.93233 0
9.32554 94.1608 5.07585 0
8.37288 93.1063 14.6123 0
9.07588 92.3142 14.1389 0
7.26492 92.9094 15.1337 0
7.73519 93.3229 15.0118 0
8.43472 93.1397 14.0591 0
8.50894 93.1031 13.4623 0
9.19815 92.7513 13.0208 0
6.53805 91.9352 15.2352 0
6.89386 92.404 15.2005 0
5.88119 90.8499 15.024 0
6.19971 91.4244 15.1298 0
6.58614 91.9102 14.7158 0
6.56831 91.9053 14.1963 0
6.88807 92.321 14.162 0
7.73562 93.0022 13.9068 0
7.96997 92.9352 12.9189 0
7.24528 92.8253 14.6297 0
7.22895 92.7482 14.1216 0
7.03731 92.8759 13.6427 0
7.53808 92.7549 12.3926 0
8.78774 92.4619 11.8415 0
6.62275 93.1898 13.1901 0
6.98536 92.8947 12.855 0
7.34517 92.6431 11.867 0
7.54021 92.726 11.329 0
8.54365 92.3634 10.73 0
5.02224 89.8593 14.4477 0
5.51344 90.321 14.8216 0
3.9203 88.7777 13.7325 0
4.46685 89.3847 14.0203 0
5.06813 89.7774 13.6916 0
4.87771 90.0104 13.0701 0
5.40109 90.478 13.5371 0
2.65329 87.9959 12.8545 0
3.27497 88.3849 13.2873 0
2.08121 87.5882 12.5002 0
2.62128 88.0992 11.9644 0
3.09454 88.8839 11.7167 0
4.33959 89.6283 12.622 0
4.71109 90.3545 12.4984 0
3.89721 88.8655 12.7765 0
3.73804 89.2642 12.1652 0
3.58795 89.6627 11.5804 0
4.49509 90.9249 12.0111 0
4.98034 91.2157 12.4253 0
3.95871 90.6015 11.5262 0
4.27195 91.5093 11.5805 0
4.61256 92.4517 11.7114 0
6.81287 93.1217 11.8571 0
7.78294 92.7744 10.7601 0
6.34128 92.7218 13.2075 0
6.23988 93.3338 12.7297 0
6.18877 93.4217 12.2617 0
5.80718 93.2746 12.3352 0
6.18077 93.4612 11.8167 0
6.27211 91.3585 14.064 0
6.48966 91.9448 13.6752 0
6.00051 90.7565 14.4199 0
5.86254 90.921 13.8266 0
5.69095 91.1223 13.2351 0
5.80479 92.6745 12.6403 0
5.59676 92.91 12.2091 0
6.13272 92.3182 13.1488 0
5.85538 91.919 12.9903 0
5.40377 91.5199 12.7016 0
5.41613 92.8112 12.219 0
5.48426 93.3057 11.9356 0
5.15499 92.0094 12.2254 0
5.03308 92.6543 11.9877 0
4.98467 93.3474 11.9041 0
7.84898 93.0233 10.1372 0
8.56176 92.5822 9.6125 0
6.2009 93.5953 11.3244 0
7.12741 93.4393 10.7877 0
7.90227 93.2725 9.46705 0
7.95076 93.3999 8.70498 0
8.6795 92.8765 8.30983 0
5.43619 93.913 11.7626 0
5.61397 93.8078 11.6502 0
5.27545 94.0383 11.8606 0
5.57502 94.6182 11.5302 0
6.0674 95.2109 10.917 0
7.23152 94.1353 9.29082 0
7.97299 93.4946 7.83555 0
6.30798 94.1794 10.7616 0
6.63751 94.8562 10.1535 0
6.82841 95.2424 9.36103 0
8.30631 93.7151 7.03851 0
9.10566 93.167 6.75295 0
7.87329 94.7756 7.64071 0
9.1187 94.2678 6.30998 0
9.84448 93.3818 4.51504 0
9.771 91.5247 13.2939 0
9.69841 91.0711 13.7852 0
9.85723 91.9725 12.086 0
9.88049 91.8854 12.7238 0
10.3746 90.6888 12.5503 0
10.7208 90.3946 11.7208 0
10.5186 90.2201 12.2566 0
9.78857 91.8036 10.8615 0
9.79325 91.8325 11.4708 0
9.47724 91.8898 9.75401 0
9.63455 91.7337 10.2978 0
10.6989 91.2595 10.0836 0
11.4524 91.0127 9.29343 0
11.6831 90.9595 10.0011 0
10.8513 90.6606 11.1185 0
11.1213 90.1477 10.8943 0
10.5346 91.1858 11.2818 0
11.3216 90.8447 10.5754 0
11.8196 90.5618 9.76776 0
11.2465 89.965 9.92619 0
10.4952 90.0474 10.3671 0
11.7889 90.0597 8.68713 0
11.6505 90.1325 9.38274 0
11.2954 89.8179 8.88321 0
11.1456 89.4852 7.7014 0
10.5747 89.7148 8.25438 0
9.29985 92.2543 8.64458 0
9.34519 92.049 9.21326 0
9.40324 92.5754 7.27615 0
9.30619 92.4193 7.98903 0
10.1014 91.9977 7.70304 0
11.0339 91.6721 6.71254 0
10.9002 91.5287 7.29923 0
10.12 92.8389 5.56613 0
9.66804 92.6709 6.40744 0
10.5938 92.7728 4.01234 0
11.1527 92.0576 3.92349 0
11.5749 91.3029 4.0054 0
11.2478 91.8097 5.95874 0
12.1048 91.1691 5.65239 0
10.4349 92.2546 6.19562 0
11.508 91.8792 5.11195 0
12.3629 90.8211 3.94649 0
12.7756 90.7912 4.67032 0
12.6925 90.4092 5.26903 0
12.9991 90.1747 3.96664 0
13.251 89.4999 3.71315 0
12.8592 88.8592 3.66968 0
11.6172 89.2359 7.07634 0
10.9611 89.5113 6.59697 0
11.9214 89.9337 7.92533 0
11.7741 89.5832 7.51734 0
11.9864 89.0338 6.4038 0
12.3732 88.8626 5.72368 0
11.8309 89.3449 5.3726 0
11.0318 91.1045 8.51853 0
11.6562 90.4874 8.2472 0
10.1472 91.582 8.83962 0
10.8443 91.2818 7.86154 0
11.821 90.6057 6.85229 0
12.4709 89.2275 6.09129 0
12.5703 88.8728 5.14713 0
12.1212 89.8483 7.17916 0
12.359 89.8439 6.48267 0
12.5881 89.9923 5.85111 0
12.624 89.3377 4.61674 0
12.0666 89.1382 4.4309 0
12.9122 89.7577 4.87703 0
12.6911 89.6235 4.12825 0
12.306 88.4286 3.5015 0
10.6873 89.9161 5.57743 0
10.1524 90.0024 6.13742 0
11.4137 89.5777 4.56456 0
11.2191 89.7845 5.01013 0
10.0946 89.7792 4.75887 0
9.33051 89.3292 4.14667 0
8.92843 89.694 4.5047 0
11.4879 88.8456 3.82054 0
11.4362 89.3416 4.17725 0
11.6149 87.9393 3.46307 0
10.9132 87.4873 3.38864 0
10.1123 87.1973 3.20992 0
9.72163 88.9315 3.78361 0
8.62002 88.3587 3.78068 0
10.6818 89.1433 3.96129 0
10.0084 88.2567 3.45973 0
9.28528 86.9378 3.0294 0
7.9998 87.1853 3.48837 0
7.52293 87.7346 3.79379 0
8.38879 86.5116 3.13277 0
7.47131 85.9011 3.48654 0
6.41277 85.1395 4.00357 0
5.22036 68.0796 16.1837 0
5.06415 69.6863 15.9598 0
5.15475 68.7714 15.9584 0
5.9723 67.8658 15.9099 0
6.73082 67.8129 15.7894 0
6.70259 67.3353 16.2055 0
5.02389 72.1015 16.5557 0
5.03455 70.9052 16.2234 0
5.46143 74.3414 17.0631 0
5.26097 73.1951 16.7745 0
5.79579 71.3816 16.1264 0
6.7384 70.8735 15.6077 0
6.83828 69.7797 15.5606 0
6.82407 68.3246 15.5983 0
7.63512 67.9516 16.0352 0
5.97505 69.223 15.6687 0
6.92104 68.9785 15.647 0
7.84838 69.0814 15.8118 0
8.5113 68.0753 16.2241 0
8.51686 67.6661 16.6397 0
8.59286 69.2889 15.7629 0
8.55564 68.63 15.9563 0
9.28033 68.4643 16.377 0
10.0342 68.9207 16.4593 0
10.1151 68.3421 16.9371 0
6.11039 76.4678 17.2982 0
5.70564 75.4303 17.2926 0
7.34152 78.2097 17.462 0
6.79668 77.424 17.3025 0
6.70801 75.9158 17.4374 0
7.24242 75.427 17.3807 0
6.99271 74.272 16.9557 0
8.22137 79.8097 17.9095 0
7.82371 79.028 17.5849 0
8.52513 80.8644 19.1221 0
8.41484 80.3804 18.5519 0
9.19942 79.5843 18.0348 0
10.0004 78.9917 18.146 0
9.23539 78.3731 17.9139 0
7.9021 76.4223 17.5981 0
8.05859 74.9905 16.8544 0
8.1353 77.7469 17.7948 0
8.5719 77.4015 17.8023 0
9.11716 77.0226 17.6344 0
8.84987 74.7707 16.2055 0
8.47273 73.6986 15.8911 0
9.89676 76.493 17.1103 0
9.32794 75.6466 16.6147 0
9.38159 74.8476 15.3643 0
9.94578 75.1542 14.595 0
9.69816 74.207 14.5451 0
9.99725 69.5245 16.0414 0
10.699 69.4318 16.4216 0
8.52947 69.9711 15.4435 0
9.28954 69.7145 15.7363 0
9.87536 70.0656 15.3862 0
9.76748 70.7007 14.8874 0
10.4655 70.5608 15.2296 0
6.72353 72.0318 15.8698 0
7.69088 70.7485 15.469 0
6.039 73.7654 16.8265 0
6.8186 73.1562 16.4528 0
7.6996 72.6149 16.0473 0
9.05887 71.1395 14.9361 0
9.66234 71.5414 14.8297 0
8.34391 70.8451 15.2019 0
8.12555 71.7662 14.9599 0
8.32475 72.6776 15.4413 0
9.5499 72.378 14.7571 0
10.3018 72.1464 14.9711 0
9.00427 72.9212 15.0198 0
9.654 73.2623 14.7085 0
10.3029 73.7355 14.4717 0
11.3072 69.9629 16.2888 0
11.4718 69.4447 16.8316 0
11.0945 71.2157 15.3708 0
11.1945 70.5554 15.7431 0
11.9096 70.5456 16.2626 0
12.4629 71.2047 16.3985 0
12.6371 70.6785 16.8147 0
10.9129 72.671 14.8859 0
11.0181 71.9891 15.2047 0
10.9511 74.1754 14.238 0
10.827 73.3739 14.5586 0
11.5374 73.0659 14.8014 0
12.1518 73.2372 14.426 0
12.2462 72.6943 15.031 0
12.3905 71.7788 15.969 0
13.0474 71.6901 16.3613 0
11.7277 71.8343 15.4991 0
12.3384 72.0927 15.386 0
12.9823 72.3661 15.2495 0
13.7331 71.859 15.9883 0
13.825 71.6427 16.5578 0
13.6732 72.7508 15.1232 0
13.7146 72.259 15.4953 0
14.36 72.0633 15.7041 0
14.7982 72.0448 15.3635 0
8.34981 66.6892 19.2634 0
9.05972 66.7682 20.0423 0
10.0578 67.0629 19.2846 0
6.68199 66.767 17.5121 0
7.55024 66.735 18.4432 0
5.91423 66.887 16.7832 0
6.70526 66.8599 16.6665 0
7.62599 67.0352 16.8908 0
9.31429 66.9957 18.5531 0
10.2043 67.1902 18.5365 0
8.43 66.813 18.4981 0
8.48491 67.0167 17.7825 0
8.53759 67.2227 17.0624 0
10.192 67.474 17.9403 0
10.9194 67.589 18.5747 0
9.36011 67.4928 17.2482 0
10.1689 67.7759 17.3763 0
10.8833 68.2714 17.3897 0
11.514 67.8462 19.2504 0
11.6026 68.4467 17.9409 0
11.5777 68.8718 17.3246 0
12.889 69.6474 17.7937 0
12.2131 69.4855 17.2799 0
12.7869 70.1415 17.281 0
13.34 70.7626 17.28 0
13.9591 71.3003 17.0576 0
8.4557 81.8136 20.137 0
8.51692 81.3086 19.6579 0
8.05279 83.1442 20.5963 0
8.2566 82.4474 20.4135 0
9.38566 81.2968 20.1679 0
10.401 80.8203 20.07 0
10.4842 80.501 19.6047 0
7.03068 84.8777 21.1837 0
7.59996 83.9623 20.7681 0
5.94244 86.8089 21.3111 0
6.47388 85.8023 21.3934 0
8.18344 84.2789 20.7439 0
9.05625 83.3581 20.2681 0
9.68443 82.6993 20.3228 0
10.2235 81.2979 20.3217 0
11.4351 80.2685 19.7761 0
8.9652 82.5953 20.4048 0
9.99778 81.9726 20.3541 0
11.1358 81.3123 20.1543 0
12.233 79.6638 18.77 0
12.2995 79.3386 18.5747 0
11.9518 80.5259 18.6353 0
12.2087 79.9983 19.0203 0
13.3009 78.9019 17.6381 0
14.39 78.9563 15.679 0
13.8949 78.6917 16.0694 0
5.51355 88.9097 20.0155 0
5.83418 87.9148 20.7365 0
6.15197 90.9127 18.6209 0
5.71665 89.9717 19.3659 0
6.22791 88.2377 19.1599 0
6.78704 87.4061 18.0484 0
7.31431 85.9364 18.7729 0
7.72924 91.1878 16.8106 0
7.07145 90.988 17.8618 0
9.09134 90.9567 14.721 0
8.28823 91.2711 15.6633 0
8.51315 90.3219 15.6936 0
9.51843 89.2012 15.0452 0
8.93576 89.2264 15.8255 0
6.49535 88.4305 17.1806 0
7.71214 86.6408 16.868 0
6.50684 89.9685 17.6364 0
7.78983 89.0715 16.5316 0
9.45132 88.0259 15.8422 0
9.17382 86.2699 15.4316 0
8.69322 85.0211 15.4896 0
9.98959 86.8795 14.6118 0
9.81256 86.7309 15.1754 0
10.5675 85.4599 14.1478 0
11.5272 84.6451 12.3814 0
12.1172 84.5041 12.6099 0
14.8802 79.543 14.9675 0
14.5548 79.3302 13.2055 0
11.2667 81.0662 17.7287 0
12.8544 79.9252 16.4318 0
14.135 79.8609 14.0621 0
12.8948 80.1735 13.3145 0
14.4921 79.3325 11.8154 0
8.33827 84.0671 19.8604 0
9.70957 82.5083 19.0426 0
7.26599 86.1608 20.585 0
7.72672 84.8894 19.2868 0
8.08916 83.7555 18.0596 0
11.1637 81.0418 14.695 0
12.183 80.7404 12.9078 0
10.4891 81.7119 16.9349 0
9.66111 82.3454 16.5868 0
8.93404 83.4953 15.9236 0
12.1853 82.0308 12.7043 0
13.3205 80.5352 11.0634 0
11.0781 83.6342 14.4405 0
12.6203 83.4511 12.8224 0
13.5521 83.4292 10.5878 0
15.4704 78.2581 11.2342 0
14.9038 78.4713 12.0709 0
15.2685 78.7296 9.81675 0
15.7281 78.2482 10.4103 0
16.1813 77.3951 9.35378 0
16.0782 76.5505 7.74753 0
16.0429 76.6285 8.77547 0
14.7924 80.5802 8.88845 0
14.7986 79.5247 9.36868 0
14.3352 82.9915 8.57603 0
15.0213 82.0412 8.56913 0
15.2887 80.0216 7.75705 0
14.9118 79.2583 7.22938 0
14.9013 78.2942 6.81554 0
15.899 76.6917 6.97901 0
15.6523 75.9222 6.78162 0
15.757 78.1052 7.99899 0
15.2773 77.3209 6.6773 0
14.761 76.9744 5.88638 0
15.0064 75.7136 6.12682 0
15.3866 75.3702 6.83724 0
14.1812 77.039 5.48195 0
14.552 76.2078 5.66447 0
14.4197 75.5891 5.57924 0
13.8721 75.5882 5.42968 0
14.2021 75.0164 6.00095 0
10.3793 90.0127 13.5556 0
9.77226 90.5886 14.1806 0
10.491 89.9128 11.8919 0
10.3524 89.9988 12.7385 0
10.3278 89.5798 13.1741 0
9.68075 88.9833 12.4951 0
9.81953 88.8643 13.3612 0
9.86207 89.9476 9.79344 0
10.0191 89.9994 10.819 0
9.78815 89.8038 7.69859 0
9.88675 89.7984 8.73402 0
9.2294 89.6524 9.20198 0
8.53433 89.3837 8.67053 0
8.64363 89.4343 9.62301 0
9.30377 89.3814 11.5677 0
8.89474 88.6676 11.7616 0
9.69361 89.7673 11.236 0
8.9168 89.398 10.5274 0
8.3062 89.0543 9.94562 0
8.37942 88.3394 11.0379 0
8.73247 87.9073 11.9173 0
7.6733 88.7266 9.3916 0
7.95293 88.6791 10.2522 0
7.70387 88.1175 10.5032 0
7.13358 87.4051 9.92611 0
7.72599 86.9984 10.5394 0
9.09219 89.9565 5.79138 0
9.52449 90.0298 6.69477 0
7.87711 89.0442 4.41267 0
8.43879 89.6731 4.9979 0
7.9901 89.6383 5.49021 0
7.05426 89.0294 5.30067 0
7.51643 89.5386 5.99416 0
6.48504 87.0207 3.99893 0
7.20159 88.0782 4.08356 0
5.88258 85.7334 4.18946 0
5.3794 86.2616 4.31699 0
4.95876 86.503 4.59599 0
6.56666 88.4 4.72576 0
6.22218 88.1832 5.17329 0
6.898 88.4072 4.34363 0
5.82494 87.5296 4.65403 0
4.56085 86.5358 5.04189 0
4.92697 87.1362 5.53217 0
5.84057 87.9203 5.61117 0
4.02802 86.4867 5.43667 0
3.37298 86.3167 5.78255 0
3.11214 85.592 6.36551 0
6.64144 87.4691 9.31743 0
6.62191 85.7493 9.31361 0
7.3476 88.8469 8.5934 0
6.96212 88.4552 8.96206 0
6.18098 87.4815 8.60746 0
5.60029 87.3889 7.95938 0
5.35692 85.8083 7.98531 0
8.26737 89.6324 7.78142 0
7.76363 89.2874 8.20467 0
8.87289 89.8397 7.2599 0
7.92043 89.6873 6.87038 0
7.19451 89.1753 6.48903 0
6.39675 88.318 7.40612 0
5.26063 86.7201 7.27974 0
7.11632 88.9463 7.75878 0
6.90133 88.8091 6.96814 0
6.43126 88.465 6.22011 0
4.85126 86.036 6.77153 0
4.31846 84.9264 7.15659 0
5.45783 87.1825 6.1111 0
3.7648 85.9201 6.53121 0
3.01127 84.5548 6.95925 0
6.58369 84.4192 8.52454 0
7.1908 84.4337 8.79814 0
5.29348 84.1025 7.97606 0
5.91829 84.359 8.15681 0
6.9285 83.5845 8.67104 0
6.63134 82.8448 9.41906 0
7.68754 82.8891 9.28556 0
3.8583 83.7983 7.77062 0
4.59848 83.9083 7.83934 0
3.15257 83.8772 7.68463 0
3.48799 83.1332 8.33398 0
3.98015 82.5807 9.06675 0
5.69856 82.6806 9.28332 0
6.27074 82.144 10.0956 0
5.08667 83.1666 8.5096 0
4.79891 82.5224 9.10608 0
4.45421 81.9688 9.85176 0
4.87696 81.4733 10.9874 0
13.4919 76.3245 5.0117 0
13.3246 75.6981 5.57599 0
13.8898 77.7422 5.86835 0
13.665 77.0394 5.08636 0
13.1529 76.9596 4.79673 0
12.8984 77.4484 5.4618 0
12.5471 76.84 5.2277 0
15.1733 80.1209 7.53603 0
14.4137 78.7628 6.73549 0
13.793 83.7146 8.77779 0
14.8719 82.0744 7.51955 0
14.7434 80.9844 7.54383 0
14.2281 81.6352 7.64709 0
14.3862 80.1721 7.49781 0
13.2187 78.1614 6.36539 0
12.6489 77.9475 6.14334 0
13.7575 78.3508 6.57374 0
13.7318 79.0516 7.23929 0
13.5582 79.5881 7.51147 0
12.2745 78.2235 6.89242 0
13.3108 80.0397 8.02247 0
12.6973 79.0179 7.69847 0
11.8781 78.5001 7.5684 0
10.8745 84.6886 12.3197 0
12.3601 84.6565 10.5866 0
10.0593 86.9743 14.131 0
10.3727 85.7645 13.385 0
10.1859 84.7873 12.3051 0
9.55457 84.9014 12.2541 0
10.7274 84.7505 10.8121 0
9.71113 89.0513 14.495 0
9.87449 88.1148 14.7164 0
9.8496 89.857 14.3727 0
10.2056 88.8366 14.0777 0
9.55615 88.1514 13.4484 0
9.43381 86.0409 13.0529 0
9.14523 85.2626 12.0639 0
9.8661 87.0407 13.7657 0
9.42396 87.139 13.3681 0
9.11163 87.3355 12.6932 0
8.79903 85.8421 11.6686 0
9.37962 84.8737 10.6563 0
8.64313 87.0001 12.0025 0
8.3252 86.5019 11.1145 0
7.99192 85.4994 10.0333 0
11.8103 79.282 8.85168 0
13.5206 80.9027 8.31711 0
12.8427 80.1028 8.66584 0
12.3199 80.0184 9.22153 0
11.9211 81.4237 8.85314 0
11.3884 80.1833 9.50063 0
13.5049 83.0318 8.30862 0
13.5868 81.9889 7.92412 0
13.1577 84.2259 8.99746 0
12.2731 84.3556 9.17445 0
11.4402 84.382 9.22255 0
12.0827 82.6445 8.12315 0
11.1902 82.7511 8.43993 0
12.8813 82.322 8.13 0
11.8577 83.5103 8.31557 0
10.5969 84.3509 9.28586 0
10.1293 83.6069 8.58152 0
10.2889 82.7455 8.89688 0
9.70839 84.4012 9.26291 0
8.75432 84.5067 9.00644 0
7.93084 84.5168 8.93037 0
10.4806 80.3997 9.77673 0
9.41813 82.8969 8.99291 0
10.1468 81.7706 9.4559 0
8.44183 83.8769 8.52935 0
8.51753 82.9598 9.19791 0
8.32752 82.0585 9.88175 0
9.63203 80.677 10.1551 0
12.7414 75.7662 5.7586 0
12.976 75.0093 6.04423 0
14.6266 72.2779 15.0078 0
15.0432 71.6843 15.041 0
13.6222 73.276 14.5818 0
14.2146 72.8822 14.9418 0
14.422 72.4492 14.6324 0
14.2842 72.7872 14.2381 0
14.4386 72.0104 14.3688 0
12.133 73.8519 13.8968 0
12.823 73.4787 14.1152 0
11.0384 74.9573 13.8206 0
11.5937 74.4264 13.8794 0
12.2906 74.5188 13.6669 0
12.4347 75.1763 13.5161 0
13.025 74.596 13.6425 0
14.0985 73.5916 14.0153 0
14.0467 73.1354 13.9222 0
13.5907 73.6437 14.1164 0
13.6554 74.1582 13.85 0
13.528 74.4287 13.507 0
13.8832 73.341 13.5046 0
13.965 72.7497 13.758 0
13.4324 74.6875 13.1144 0
13.7777 73.9927 13.2132 0
13.5696 73.6223 12.9997 0
13.6024 74.0434 12.3776 0
13.3093 73.3149 12.7565 0
10.3348 76.1069 14.784 0
10.6373 75.4816 14.0207 0
10.6038 77.209 17.5542 0
10.4454 76.6159 16.2344 0
10.9216 77.1029 15.2086 0
11.486 78.0231 15.5653 0
11.4872 77.3085 14.1911 0
10.2616 79.5917 18.6556 0
10.6547 78.2494 18.3341 0
9.51275 80.5258 19.1275 0
10.4584 80.1486 19.1272 0
11.2826 79.5131 18.8152 0
11.809 77.239 17.38 0
12.2608 78.2178 15.9275 0
11.2681 77.5776 18.0335 0
11.7362 78.1061 18.3241 0
12.0572 78.7684 18.4964 0
12.9677 78.2622 16.249 0
12.732 78.5258 14.6605 0
12.7641 77.8351 17.8509 0
13.45 78.5153 16.2681 0
14.1003 78.5995 14.5995 0
13.8514 74.8006 12.0124 0
13.6654 74.4702 11.6499 0
13.2697 75.5149 13.0205 0
13.6537 75.139 12.6884 0
13.8241 75.5706 11.9911 0
14.0347 76.1749 11.916 0
14.3784 75.7065 11.2179 0
11.97 75.8308 13.3245 0
12.6829 75.8146 13.2358 0
11.3345 75.7649 13.6476 0
11.6267 76.4712 13.4408 0
12.0662 77.2441 13.442 0
13.4588 76.6602 12.7664 0
14.0028 76.8663 12.1631 0
12.8966 76.2578 12.8609 0
12.717 76.9729 12.9108 0
12.6714 77.8169 13.569 0
13.9869 77.5745 12.542 0
14.6362 76.9477 11.5407 0
13.3688 78.094 13.6175 0
14.1046 78.1345 13.4182 0
14.5221 78.3136 12.809 0
13.8437 74.6519 10.8864 0
13.3124 74.1306 11.2517 0
14.72 75.7075 10.4674 0
14.3868 75.1418 10.5629 0
14.1079 74.7018 10.0832 0
14.2223 74.7473 9.10515 0
13.6696 74.3644 9.54381 0
15.158 76.9354 10.8822 0
15.1118 76.286 10.4717 0
15.2823 77.5847 11.2209 0
15.7834 76.8297 10.0154 0
15.7413 76.0654 8.55556 0
14.7632 75.1334 8.69014 0
14.351 74.7514 8.17801 0
15.114 75.6668 9.71428 0
15.2001 75.6112 8.60975 0
15.3527 75.4694 7.61351 0
14.535 74.67 7.41411 0
14.007 74.3768 7.88418 0
15.0237 74.9426 6.96779 0
14.5706 74.6569 6.69538 0
13.9051 74.4783 6.51005 0
14.2415 71.5986 13.994 0
13.9259 72.0307 13.7461 0
13.5653 72.4115 13.3832 0
13.2606 72.6964 12.9109 0
12.9902 73.104 12.4486 0
12.1281 72.7259 11.9099 0
12.3199 72.333 12.4306 0
12.5757 72.937 12.1416 0
12.9598 73.4786 11.6932 0
12.4634 73.5775 10.7826 0
12.004 73.3046 10.6462 0
12.9277 73.8276 10.9427 0
13.0803 73.9498 10.0313 0
13.2294 74.0642 9.12566 0
12.7066 73.8893 9.09301 0
13.4474 74.0347 8.37654 0
12.8604 74.1384 7.72584 0
13.6476 74.0175 7.64323 0
13.4389 74.127 6.98847 0
13.2241 74.2745 6.36525 0
3.97211 81.4703 10.7871 0
3.33478 80.5727 10.9372 0
2.74638 79.7792 10.9007 0
2.02129 79.9224 10.8982 0
1.84026 80.9568 10.7256 0
1.10382 80.9893 10.4739 0
0.372222 80.7842 10.0851 0
0.212881 81.252 9.44545 0
4.0714 83.75 4.54507 0
4.64565 83.0503 4.3678 0
2.85287 83.4282 4.44576 0
1.86247 83.1681 4.85689 0
1.09553 82.8191 5.5221 0
-1.173 82.3773 6.51898 0
0.402373 82.1158 5.7508 0
-0.547941 81.8794 6.16308 0
-0.935435 82.2309 6.23663 0
-0.519352 81.0769 9.25326 0
-0.690958 81.4522 8.74955 0
-0.861643 81.734 8.22705 0
-1.02291 82.0155 7.68889 0
-1.05198 82.2381 7.13312 0
5.07755 82.4476 3.92935 0
6.35943 82.9622 3.77233 0
5.94404 80.4058 1.32648 0
7.02125 81.2431 1.51578 0
6.0098 79.6023 0.744347 0
6.09878 79.1913 0.375807 0
7.15909 79.0755 -0.0848121 0
7.14797 79.4811 -2.60166 0
7.61884 78.8582 -2.40521 0
7.49134 80.1029 -3.33566 0
8.14935 80.0723 -3.99723 0
-2.21989 95.9869 6.14588 0
-2.61911 94.373 5.795 0
-1.46185 97.2227 6.72943 0
-1.34675 97.6764 6.40542 0
-0.154501 99.3565 6.34485 0
1.28221 100.36 6.21009 0
2.38503 100.592 6.0205 0
3.24523 100.05 5.61112 0
3.59764 99.2046 5.02051 0
3.36701 97.5433 4.29163 0
2.37121 95.4256 3.45901 0
0.842135 93.7195 2.60622 0
0.209379 92.3881 1.13875 0
-0.00254479 91.7403 -0.102433 0
0.725611 91.4441 -1.01765 0
1.54042 91.3097 -1.76315 0
2.45842 91.7333 -2.2277 0
3.42111 92.3467 -2.374 0
3.92226 91.8453 -2.89619 0
4.28554 91.1482 -3.6424 0
4.13461 90.2897 -3.53312 0
4.0041 89.4844 -3.23997 0
3.86053 88.5865 -2.87905 0
3.87979 87.8141 -1.93131 0
5.62088 86.1961 -2.5031 0
7.73858 84.7798 -2.99988 0
7.49037 85.4754 -3.62777 0
6.46656 86.1988 -3.44759 0
5.46071 86.9061 -3.20981 0
4.58658 87.7032 -3.00866 0
9.85282 83.0859 -4.44808 0
10.4953 83.4061 -5.44468 0
9.40696 83.9845 -3.94163 0
8.50883 84.7567 -3.73141 0
11.8457 82.1048 -5.67675 0
12.3537 83.1153 -5.98401 0
11.43 83.8847 -5.94313 0
12.4806 82.3396 -6.49873 0
12.6423 82.508 -6.25104 0
11.7419 82.2121 -6.76767 0
10.9259 81.9647 -6.58032 0
9.90519 81.9851 -5.99881 0
9.07718 81.9346 -5.51983 0
8.47406 80.9603 -4.83412 0
7.38578 78.57 -1.71777 0
7.2638 78.6231 -1.1481 0
7.16284 78.6747 -0.586797 0
6.95646 81.7496 2.18771 0
6.77765 82.3356 3.2022 0
3.59015 70.9791 16.7364 0
4.35795 69.3407 16.3525 0
3.70324 72.1724 16.9164 0
1.6658 77.8332 16.3237 0
2.11057 76.6291 16.3551 0
3.23249 73.7454 17.0742 0
2.62269 75.1827 16.7439 0
-0.150579 81.6063 19.0722 0
0.390301 81.2679 18.5382 0
-0.00795871 82.2123 19.4054 0
-0.572582 82.5001 19.5579 0
1.89203 78.6181 16.3497 0
1.30909 79.4819 16.7912 0
0.913334 80.9045 17.7801 0
0.648806 80.3469 17.4387 0
-3.21715 91.5249 6.05965 0
-2.83518 91.0185 6.097 0
-2.7362 92.6292 5.95796 0
-3.1594 93.1176 5.90068 0
-1.44821 94.6526 6.47916 0
-0.384033 83.0174 19.6045 0
-0.962415 83.4668 18.9262 0
-1.46262 83.8563 18.1918 0
-1.23908 84.4627 18.0094 0
-1.6738 84.7806 17.3804 0
-2.05898 85.0719 16.7555 0
-2.42216 85.3613 16.1478 0
-2.75251 85.5404 15.5846 0
-2.48576 85.9615 15.408 0
-2.21547 85.6247 13.8133 0
-2.73246 85.8974 14.8476 0
-2.76498 85.5881 14.1731 0
-1.99579 85.4675 11.998 0
-2.50858 85.2449 12.3989 0
-2.34713 85.3644 13.0783 0
-2.17181 85.5343 11.45 0
-2.24642 85.8804 10.8567 0
-1.57335 86.4826 10.3649 0
-1.20947 87.8688 9.43285 0
-1.67479 86.9404 9.85164 0
-1.25733 88.3989 8.76338 0
-1.94827 87.8336 8.67932 0
-2.00817 88.4172 8.12843 0
-1.35292 89.3375 7.62459 0
-1.41208 89.7141 7.18892 0
-0.727471 90.427 6.70081 0
-1.50394 90.1027 6.8309 0
-1.64104 90.5722 6.72477 0
-2.38465 90.1772 6.66428 0
-1.99815 91.5486 6.14775 0
-2.56302 90.571 6.32055 0
4.3914 68.4264 16.3144 0
5.20315 67.4836 16.5333 0
14.462 71.7635 16.1872 0
14.9197 71.7548 15.7875 0
15.3309 71.6237 15.4457 0
8.241 66.5792 20.0015 0
8.98833 66.358 20.5871 0
7.48297 66.6347 19.2213 0
9.80376 66.5864 20.6113 0
9.88014 66.9842 20.036 0
10.6499 67.2911 20.0219 0
6.66235 66.6758 18.3565 0
5.90103 66.8156 17.6378 0
5.16292 66.9622 16.9533 0
11.3762 67.6666 19.9855 0
12.0552 68.14 19.925 0
12.2109 68.3465 19.19 0
12.2773 68.6397 18.4853 0
12.9466 69.2016 18.3438 0
11.6 68.0878 18.5816 0
13.5207 69.7963 18.2594 0
13.4376 70.2651 17.7386 0
14.0436 70.7891 17.5111 0
14.6615 71.2989 17.2853 0
14.5745 71.5811 16.7544 0
6.71999 81.2299 10.6153 0
5.7919 81.3678 10.8819 0
4.16479 80.4739 11.0971 0
5.04683 80.293 11.1943 0
12.2622 77.2872 5.786 0
11.8678 77.7263 6.1161 0
11.4636 77.9081 6.82308 0
11.0156 77.8886 7.42394 0
11.3891 78.5032 8.23731 0
10.8188 78.2809 8.8459 0
10.1191 78.1934 9.2456 0
10.3892 79.1149 9.70199 0
9.47438 79.3121 9.97502 0
8.57306 79.4754 10.1937 0
8.73961 80.9012 10.4181 0
7.71731 81.0504 10.4417 0
12.2638 75.1623 6.31334 0
12.3229 76.2688 5.649 0
11.8975 76.6872 5.68335 0
11.9791 75.6732 6.04083 0
15.2925 71.0416 14.8923 0
14.9831 71.1794 14.5128 0
14.5424 71.2825 14.2549 0
14.305 70.8403 13.9097 0
13.9569 71.2754 13.6494 0
13.5034 71.7336 13.4002 0
13.1436 72.0502 12.9903 0
12.7968 72.5011 12.6539 0
11.8481 72.2348 12.151 0
11.6946 72.6409 11.6868 0
12.0073 73.0489 11.3401 0
12.214 71.6678 12.4293 0
12.6967 71.8651 12.7524 0
11.5747 72.9495 11.1282 0
12.1905 73.6837 9.08521 0
12.1821 73.9297 8.44606 0
11.4025 73.1446 10.6155 0
12.0697 73.5289 9.85573 0
12.0767 74.23 7.83133 0
11.8984 74.3676 7.30363 0
12.4774 74.4292 6.59556 0
452 28 1825 0
452 1825 1826 0
113 452 1826 0
113 1826 1827 0
1828 113 1827 0
455 453 28 0
454 114 453 0
454 453 455 0
116 454 455 0
458 456 114 0
457 7 456 0
457 456 458 0
115 457 458 0
459 454 116 0
458 114 454 0
458 454 459 0
115 458 459 0
461 459 116 0
460 115 459 0
460 459 461 0
29 460 461 0
1829 113 1828 0
462 452 113 0
455 28 452 0
455 452 462 0
116 455 462 0
463 1829 1830 0
462 113 1829 0
462 1829 463 0
116 462 463 0
464 463 1830 0
461 116 463 0
461 463 464 0
29 461 464 0
1831 464 1830 0
1832 29 464 0
1832 464 1831 0
467 465 7 0
466 117 465 0
466 465 467 0
119 466 467 0
470 468 117 0
469 30 468 0
469 468 470 0
118 469 470 0
471 466 119 0
470 117 466 0
470 466 471 0
118 470 471 0
473 471 119 0
472 118 471 0
472 471 473 0
31 472 473 0
476 474 30 0
475 120 474 0
475 474 476 0
121 475 476 0
1833 477 120 0
1834 0 477 0
1834 477 1833 0
1835 475 121 0
1833 120 475 0
1833 475 1835 0
1836 1835 121 0
479 472 31 0
478 118 472 0
478 472 479 0
122 478 479 0
480 469 118 0
476 30 469 0
476 469 480 0
121 476 480 0
481 478 122 0
480 118 478 0
480 478 481 0
121 480 481 0
1837 481 122 0
1836 121 481 0
1836 481 1837 0
483 479 31 0
482 122 479 0
482 479 483 0
1838 482 483 0
484 1837 122 0
1839 1837 484 0
1840 1839 484 0
1841 482 1838 0
484 122 482 0
484 482 1841 0
1840 484 1841 0
485 29 1832 0
485 1832 1842 0
1843 485 1842 0
487 460 29 0
486 115 460 0
486 460 487 0
123 486 487 0
488 457 115 0
467 7 457 0
467 457 488 0
119 467 488 0
489 486 123 0
488 115 486 0
488 486 489 0
119 488 489 0
490 489 123 0
473 119 489 0
473 489 490 0
31 473 490 0
491 485 1843 0
487 29 485 0
487 485 491 0
123 487 491 0
492 1844 1845 0
491 1843 1844 0
491 1844 492 0
123 491 492 0
493 492 1845 0
490 123 492 0
490 492 493 0
31 490 493 0
1846 493 1845 0
483 31 493 0
483 493 1846 0
1838 483 1846 0
1847 1848 0 0
1849 494 1850 0
1851 124 494 0
1851 494 1849 0
1852 1853 124 0
1852 124 1851 0
1854 32 1855 0
1856 1857 32 0
1856 32 1854 0
1847 0 1834 0
495 1858 1859 0
1860 1858 495 0
1 1860 495 0
497 1860 1 0
496 1861 1860 0
496 1860 497 0
125 496 497 0
498 496 125 0
1862 1861 496 0
1862 496 498 0
1863 1862 498 0
500 498 125 0
499 1863 498 0
499 498 500 0
33 499 500 0
501 499 33 0
1864 1863 499 0
1864 499 501 0
1865 1864 501 0
503 501 33 0
502 1865 501 0
502 501 503 0
126 502 503 0
504 502 126 0
1866 1865 502 0
1866 502 504 0
1867 1866 504 0
506 504 126 0
505 1867 504 0
505 504 506 0
8 505 506 0
507 505 8 0
1868 1867 505 0
1868 505 507 0
1869 1868 507 0
509 507 8 0
508 1869 507 0
508 507 509 0
127 508 509 0
510 508 127 0
1870 1869 508 0
1870 508 510 0
1871 1870 510 0
512 510 127 0
511 1871 510 0
511 510 512 0
34 511 512 0
513 511 34 0
1872 1871 511 0
1872 511 513 0
1873 1872 513 0
515 513 34 0
514 1873 513 0
514 513 515 0
128 514 515 0
516 514 128 0
1874 1873 514 0
1874 514 516 0
1875 1874 516 0
517 516 128 0
1876 1875 516 0
1876 516 517 0
1877 1876 517 0
519 497 1 0
518 125 497 0
518 497 519 0
130 518 519 0
521 500 125 0
520 33 500 0
520 500 521 0
129 520 521 0
522 518 130 0
521 125 518 0
521 518 522 0
129 521 522 0
524 522 130 0
523 129 522 0
523 522 524 0
36 523 524 0
526 503 33 0
525 126 503 0
525 503 526 0
132 525 526 0
528 506 126 0
527 8 506 0
527 506 528 0
131 527 528 0
529 525 132 0
528 126 525 0
528 525 529 0
131 528 529 0
531 529 132 0
530 131 529 0
530 529 531 0
35 530 531 0
533 523 36 0
532 129 523 0
532 523 533 0
133 532 533 0
534 520 129 0
526 33 520 0
526 520 534 0
132 526 534 0
535 532 133 0
534 129 532 0
534 532 535 0
132 534 535 0
536 535 133 0
531 132 535 0
531 535 536 0
35 531 536 0
538 533 36 0
537 133 533 0
537 533 538 0
135 537 538 0
540 536 133 0
539 35 536 0
539 536 540 0
134 539 540 0
541 537 135 0
540 133 537 0
540 537 541 0
134 540 541 0
543 541 135 0
542 134 541 0
542 541 543 0
10 542 543 0
545 509 8 0
544 127 509 0
544 509 545 0
137 544 545 0
547 512 127 0
546 34 512 0
546 512 547 0
136 546 547 0
548 544 137 0
547 127 544 0
547 544 548 0
136 547 548 0
550 548 137 0
549 136 548 0
549 548 550 0
37 549 550 0
552 515 34 0
551 128 515 0
551 515 552 0
138 551 552 0
553 517 128 0
1878 1877 517 0
1878 517 553 0
1879 1878 553 0
554 551 138 0
553 128 551 0
553 551 554 0
1879 553 554 0
555 554 138 0
1880 1879 554 0
1880 554 555 0
1881 1880 555 0
557 549 37 0
556 136 549 0
556 549 557 0
139 556 557 0
558 546 136 0
552 34 546 0
552 546 558 0
138 552 558 0
559 556 139 0
558 136 556 0
558 556 559 0
138 558 559 0
560 559 139 0
555 138 559 0
555 559 560 0
1881 555 560 0
562 557 37 0
561 139 557 0
561 557 562 0
141 561 562 0
564 560 139 0
563 1881 560 0
563 560 564 0
140 563 564 0
565 561 141 0
564 139 561 0
564 561 565 0
140 564 565 0
567 565 141 0
566 140 565 0
566 565 567 0
9 566 567 0
569 542 10 0
568 134 542 0
568 542 569 0
143 568 569 0
571 539 134 0
570 35 539 0
570 539 571 0
142 570 571 0
572 568 143 0
571 134 568 0
571 568 572 0
142 571 572 0
574 572 143 0
573 142 572 0
573 572 574 0
38 573 574 0
576 530 35 0
575 131 530 0
575 530 576 0
144 575 576 0
577 527 131 0
545 8 527 0
545 527 577 0
137 545 577 0
578 575 144 0
577 131 575 0
577 575 578 0
137 577 578 0
579 578 144 0
550 137 578 0
550 578 579 0
37 550 579 0
581 573 38 0
580 142 573 0
580 573 581 0
145 580 581 0
582 570 142 0
576 35 570 0
576 570 582 0
144 576 582 0
583 580 145 0
582 142 580 0
582 580 583 0
144 582 583 0
584 583 145 0
579 144 583 0
579 583 584 0
37 579 584 0
586 581 38 0
585 145 581 0
585 581 586 0
146 585 586 0
587 584 145 0
562 37 584 0
562 584 587 0
141 562 587 0
588 585 146 0
587 145 585 0
587 585 588 0
141 587 588 0
589 588 146 0
567 141 588 0
567 588 589 0
9 567 589 0
591 569 10 0
590 143 569 0
590 569 591 0
148 590 591 0
593 574 143 0
592 38 574 0
592 574 593 0
147 592 593 0
594 590 148 0
593 143 590 0
593 590 594 0
147 593 594 0
596 594 148 0
595 147 594 0
595 594 596 0
40 595 596 0
598 586 38 0
597 146 586 0
597 586 598 0
150 597 598 0
600 589 146 0
599 9 589 0
599 589 600 0
149 599 600 0
601 597 150 0
600 146 597 0
600 597 601 0
149 600 601 0
603 601 150 0
602 149 601 0
602 601 603 0
39 602 603 0
605 595 40 0
604 147 595 0
604 595 605 0
151 604 605 0
606 592 147 0
598 38 592 0
598 592 606 0
150 598 606 0
607 604 151 0
606 147 604 0
606 604 607 0
150 606 607 0
608 607 151 0
603 150 607 0
603 607 608 0
39 603 608 0
610 605 40 0
609 151 605 0
609 605 610 0
153 609 610 0
612 608 151 0
611 39 608 0
611 608 612 0
152 611 612 0
613 609 153 0
612 151 609 0
612 609 613 0
152 612 613 0
615 613 153 0
614 152 613 0
614 613 615 0
3 614 615 0
617 614 3 0
616 152 614 0
616 614 617 0
155 616 617 0
619 611 152 0
618 39 611 0
618 611 619 0
154 618 619 0
620 616 155 0
619 152 616 0
619 616 620 0
154 619 620 0
622 620 155 0
621 154 620 0
621 620 622 0
42 621 622 0
624 602 39 0
623 149 602 0
623 602 624 0
157 623 624 0
626 599 149 0
625 9 599 0
625 599 626 0
156 625 626 0
627 623 157 0
626 149 623 0
626 623 627 0
156 626 627 0
629 627 157 0
628 156 627 0
628 627 629 0
41 628 629 0
631 621 42 0
630 154 621 0
630 621 631 0
158 630 631 0
632 618 154 0
624 39 618 0
624 618 632 0
157 624 632 0
633 630 158 0
632 154 630 0
632 630 633 0
157 632 633 0
634 633 158 0
629 157 633 0
629 633 634 0
41 629 634 0
636 631 42 0
635 158 631 0
635 631 636 0
160 635 636 0
638 634 158 0
637 41 634 0
637 634 638 0
159 637 638 0
639 635 160 0
638 158 635 0
638 635 639 0
159 638 639 0
641 639 160 0
640 159 639 0
640 639 641 0
11 640 641 0
643 566 9 0
642 140 566 0
642 566 643 0
161 642 643 0
645 563 140 0
644 1881 563 0
644 563 645 0
1882 644 645 0
646 642 161 0
645 140 642 0
645 642 646 0
1882 645 646 0
648 646 161 0
647 1882 646 0
647 646 648 0
1883 647 648 0
1884 647 1883 0
1885 1882 647 0
1885 647 1884 0
1886 644 1882 0
1887 1881 644 0
1887 644 1886 0
650 640 11 0
649 159 640 0
649 640 650 0
163 649 650 0
652 637 159 0
651 41 637 0
651 637 652 0
162 651 652 0
653 649 163 0
652 159 649 0
652 649 653 0
162 652 653 0
655 653 163 0
654 162 653 0
654 653 655 0
43 654 655 0
657 628 41 0
656 156 628 0
656 628 657 0
164 656 657 0
658 625 156 0
643 9 625 0
643 625 658 0
161 643 658 0
659 656 164 0
658 156 656 0
658 656 659 0
161 658 659 0
660 659 164 0
648 161 659 0
648 659 660 0
1883 648 660 0
662 654 43 0
661 162 654 0
661 654 662 0
165 661 662 0
663 651 162 0
657 41 651 0
657 651 663 0
164 657 663 0
664 661 165 0
663 162 661 0
663 661 664 0
164 663 664 0
665 664 165 0
660 164 664 0
660 664 665 0
1883 660 665 0
666 662 43 0
1888 165 662 0
1888 662 666 0
1889 1888 666 0
1890 665 165 0
1891 1883 665 0
1891 665 1890 0
1890 165 1888 0
668 650 11 0
667 163 650 0
667 650 668 0
167 667 668 0
670 655 163 0
669 43 655 0
669 655 670 0
166 669 670 0
671 667 167 0
670 163 667 0
670 667 671 0
166 670 671 0
673 671 167 0
672 166 671 0
672 671 673 0
44 672 673 0
675 666 43 0
674 1889 666 0
674 666 675 0
1892 674 675 0
1893 674 1892 0
1894 1889 674 0
1894 674 1893 0
677 672 44 0
676 166 672 0
676 672 677 0
168 676 677 0
678 669 166 0
675 43 669 0
675 669 678 0
1892 675 678 0
679 676 168 0
678 166 676 0
678 676 679 0
1892 678 679 0
1895 679 168 0
1896 1892 679 0
1896 679 1895 0
681 677 44 0
680 168 677 0
680 677 681 0
169 680 681 0
1897 1895 168 0
1898 680 169 0
1897 168 680 0
1897 680 1898 0
1899 1898 169 0
683 617 3 0
682 155 617 0
682 617 683 0
171 682 683 0
685 622 155 0
684 42 622 0
684 622 685 0
170 684 685 0
686 682 171 0
685 155 682 0
685 682 686 0
170 685 686 0
688 686 171 0
687 170 686 0
687 686 688 0
46 687 688 0
690 636 42 0
689 160 636 0
689 636 690 0
173 689 690 0
692 641 160 0
691 11 641 0
691 641 692 0
172 691 692 0
693 689 173 0
692 160 689 0
692 689 693 0
172 692 693 0
695 693 173 0
694 172 693 0
694 693 695 0
45 694 695 0
697 687 46 0
696 170 687 0
696 687 697 0
174 696 697 0
698 684 170 0
690 42 684 0
690 684 698 0
173 690 698 0
699 696 174 0
698 170 696 0
698 696 699 0
173 698 699 0
700 699 174 0
695 173 699 0
695 699 700 0
45 695 700 0
702 697 46 0
701 174 697 0
701 697 702 0
176 701 702 0
704 700 174 0
703 45 700 0
703 700 704 0
175 703 704 0
705 701 176 0
704 174 701 0
704 701 705 0
175 704 705 0
707 705 176 0
706 175 705 0
706 705 707 0
12 706 707 0
709 668 11 0
708 167 668 0
708 668 709 0
178 708 709 0
711 673 167 0
710 44 673 0
710 673 711 0
177 710 711 0
712 708 178 0
711 167 708 0
711 708 712 0
177 711 712 0
714 712 178 0
713 177 712 0
713 712 714 0
47 713 714 0
716 681 44 0
715 169 681 0
715 681 716 0
179 715 716 0
717 1899 169 0
1900 1899 717 0
1901 1900 717 0
718 715 179 0
717 169 715 0
717 715 718 0
1901 717 718 0
719 718 179 0
1857 1901 718 0
1857 718 719 0
32 1857 719 0
721 713 47 0
720 177 713 0
720 713 721 0
180 720 721 0
722 710 177 0
716 44 710 0
716 710 722 0
179 716 722 0
723 720 180 0
722 177 720 0
722 720 723 0
179 722 723 0
724 723 180 0
719 179 723 0
719 723 724 0
32 719 724 0
726 721 47 0
725 180 721 0
725 721 726 0
181 725 726 0
727 724 180 0
1855 32 724 0
1855 724 727 0
1902 1855 727 0
728 725 181 0
727 180 725 0
727 725 728 0
1902 727 728 0
729 728 181 0
1903 1902 728 0
1903 728 729 0
1904 1903 729 0
731 706 12 0
730 175 706 0
730 706 731 0
183 730 731 0
733 703 175 0
732 45 703 0
732 703 733 0
182 732 733 0
734 730 183 0
733 175 730 0
733 730 734 0
182 733 734 0
736 734 183 0
735 182 734 0
735 734 736 0
48 735 736 0
738 694 45 0
737 172 694 0
737 694 738 0
184 737 738 0
739 691 172 0
709 11 691 0
709 691 739 0
178 709 739 0
740 737 184 0
739 172 737 0
739 737 740 0
178 739 740 0
741 740 184 0
714 178 740 0
714 740 741 0
47 714 741 0
743 735 48 0
742 182 735 0
742 735 743 0
185 742 743 0
744 732 182 0
738 45 732 0
738 732 744 0
184 738 744 0
745 742 185 0
744 182 742 0
744 742 745 0
184 744 745 0
746 745 185 0
741 184 745 0
741 745 746 0
47 741 746 0
748 743 48 0
747 185 743 0
747 743 748 0
186 747 748 0
749 746 185 0
726 47 746 0
726 746 749 0
181 726 749 0
750 747 186 0
749 185 747 0
749 747 750 0
181 749 750 0
751 750 186 0
729 181 750 0
729 750 751 0
1904 729 751 0
753 731 12 0
752 183 731 0
752 731 753 0
188 752 753 0
755 736 183 0
754 48 736 0
754 736 755 0
187 754 755 0
756 752 188 0
755 183 752 0
755 752 756 0
187 755 756 0
758 756 188 0
757 187 756 0
757 756 758 0
49 757 758 0
760 748 48 0
759 186 748 0
759 748 760 0
189 759 760 0
761 751 186 0
1853 1904 751 0
1853 751 761 0
124 1853 761 0
762 759 189 0
761 186 759 0
761 759 762 0
124 761 762 0
763 762 189 0
494 124 762 0
494 762 763 0
1850 494 763 0
765 757 49 0
764 187 757 0
764 757 765 0
190 764 765 0
766 754 187 0
760 48 754 0
760 754 766 0
189 760 766 0
767 764 190 0
766 187 764 0
766 764 767 0
189 766 767 0
768 767 190 0
763 189 767 0
763 767 768 0
1850 763 768 0
770 765 49 0
769 190 765 0
769 765 770 0
191 769 770 0
771 768 190 0
1905 1850 768 0
1905 768 771 0
1906 1905 771 0
772 769 191 0
771 190 769 0
771 769 772 0
1906 771 772 0
773 772 191 0
1848 1906 772 0
1848 772 773 0
0 1848 773 0
774 1907 1908 0
1909 1907 774 0
51 1909 774 0
50 1910 1911 0
775 1909 51 0
1912 1909 775 0
192 1912 775 0
1913 1912 192 0
776 1913 192 0
1911 1913 776 0
50 1911 776 0
778 775 51 0
777 192 775 0
777 775 778 0
194 777 778 0
780 776 192 0
779 50 776 0
779 776 780 0
193 779 780 0
781 777 194 0
