#!ascii - generated by CreateLabelFiles project 
2713 5192
786 781 201 0
785 199 781 0
785 781 786 0
200 785 786 0
788 786 201 0
787 200 786 0
787 786 788 0
53 787 788 0
790 778 54 0
789 197 778 0
789 778 790 0
202 789 790 0
791 775 197 0
782 52 775 0
782 775 791 0
201 782 791 0
792 789 202 0
791 197 789 0
791 789 792 0
201 791 792 0
793 792 202 0
788 201 792 0
788 792 793 0
53 788 793 0
795 790 54 0
794 202 790 0
794 790 795 0
204 794 795 0
797 793 202 0
796 53 793 0
796 793 797 0
203 796 797 0
798 794 204 0
797 202 794 0
797 794 798 0
203 797 798 0
800 798 204 0
799 203 798 0
799 798 800 0
16 799 800 0
803 801 15 0
802 2522 801 0
802 801 803 0
206 802 803 0
205 2523 2524 0
804 802 206 0
2524 2522 802 0
2524 802 804 0
205 2524 804 0
806 804 206 0
805 205 804 0
805 804 806 0
55 805 806 0
808 805 55 0
807 205 805 0
807 805 808 0
207 807 808 0
2525 2523 205 0
2526 807 207 0
2525 205 807 0
2525 807 2526 0
2527 2526 207 0
810 808 55 0
809 207 808 0
809 808 810 0
208 809 810 0
2528 2527 207 0
2529 809 208 0
2528 207 809 0
2528 809 2529 0
2530 2529 208 0
812 799 16 0
811 203 799 0
811 799 812 0
2531 811 812 0
814 796 203 0
813 53 796 0
813 796 814 0
209 813 814 0
815 811 2531 0
814 203 811 0
814 811 815 0
209 814 815 0
2532 815 2531 0
816 209 815 0
816 815 2532 0
2533 816 2532 0
818 787 53 0
817 200 787 0
817 787 818 0
210 817 818 0
819 784 200 0
803 15 784 0
803 784 819 0
206 803 819 0
820 817 210 0
819 200 817 0
819 817 820 0
206 819 820 0
821 820 210 0
806 206 820 0
806 820 821 0
55 806 821 0
823 816 2533 0
822 209 816 0
822 816 823 0
211 822 823 0
824 813 209 0
818 53 813 0
818 813 824 0
210 818 824 0
825 822 211 0
824 209 822 0
824 822 825 0
210 824 825 0
826 825 211 0
821 210 825 0
821 825 826 0
55 821 826 0
2534 823 2533 0
2535 211 823 0
2535 823 2534 0
827 826 211 0
810 55 826 0
810 826 827 0
208 810 827 0
827 211 2535 0
827 2535 2536 0
208 827 2536 0
2530 208 2536 0
2537 812 16 0
2538 2531 812 0
2538 812 2537 0
2539 13 2513 0
829 737 13 0
828 187 737 0
828 737 829 0
213 828 829 0
831 734 187 0
830 49 734 0
830 734 831 0
212 830 831 0
832 828 213 0
831 187 828 0
831 828 832 0
212 831 832 0
2540 832 213 0
833 212 832 0
833 832 2540 0
2541 833 2540 0
835 725 49 0
834 184 725 0
834 725 835 0
214 834 835 0
836 722 184 0
773 1 722 0
773 722 836 0
198 773 836 0
837 834 214 0
836 184 834 0
836 834 837 0
198 836 837 0
838 837 214 0
779 198 837 0
779 837 838 0
54 779 838 0
840 833 2541 0
839 212 833 0
839 833 840 0
215 839 840 0
841 830 212 0
835 49 830 0
835 830 841 0
214 835 841 0
842 839 215 0
841 212 839 0
841 839 842 0
214 841 842 0
843 842 215 0
838 214 842 0
838 842 843 0
54 838 843 0
2542 840 2541 0
844 215 840 0
844 840 2542 0
2543 844 2542 0
845 843 215 0
795 54 843 0
795 843 845 0
204 795 845 0
846 844 2543 0
845 215 844 0
845 844 846 0
204 845 846 0
2544 846 2543 0
800 204 846 0
800 846 2544 0
16 800 2544 0
829 13 2539 0
829 2539 2545 0
213 829 2545 0
213 2545 2546 0
2540 213 2546 0
16 2544 2547 0
2537 16 2547 0
217 2548 2549 0
847 2550 2551 0
2552 2550 847 0
216 2552 847 0
848 2548 217 0
847 2551 2548 0
847 2548 848 0
216 847 848 0
850 848 217 0
849 216 848 0
849 848 850 0
17 849 850 0
56 2553 2554 0
2555 2553 56 0
852 2555 56 0
851 2556 2555 0
851 2555 852 0
218 851 852 0
217 2549 2557 0
853 851 218 0
2557 2556 851 0
2557 851 853 0
217 2557 853 0
854 853 218 0
850 217 853 0
850 853 854 0
17 850 854 0
855 2558 2559 0
855 2559 2560 0
220 855 2560 0
857 2554 2558 0
856 56 2554 0
856 2554 857 0
219 856 857 0
858 855 220 0
857 2558 855 0
857 855 858 0
219 857 858 0
860 858 220 0
859 219 858 0
859 858 860 0
58 859 860 0
862 852 56 0
861 218 852 0
861 852 862 0
222 861 862 0
864 854 218 0
863 17 854 0
863 854 864 0
221 863 864 0
865 861 222 0
864 218 861 0
864 861 865 0
221 864 865 0
867 865 222 0
866 221 865 0
866 865 867 0
57 866 867 0
869 859 58 0
868 219 859 0
868 859 869 0
223 868 869 0
870 856 219 0
862 56 856 0
862 856 870 0
222 862 870 0
871 868 223 0
870 219 868 0
870 868 871 0
222 870 871 0
872 871 223 0
867 222 871 0
867 871 872 0
57 867 872 0
874 869 58 0
873 223 869 0
873 869 874 0
225 873 874 0
876 872 223 0
875 57 872 0
875 872 876 0
224 875 876 0
877 873 225 0
876 223 873 0
876 873 877 0
224 876 877 0
879 877 225 0
878 224 877 0
878 877 879 0
5 878 879 0
226 2561 2562 0
2563 2561 226 0
880 2563 226 0
2564 2563 880 0
4 2564 880 0
882 878 5 0
881 224 878 0
881 878 882 0
228 881 882 0
884 875 224 0
883 57 875 0
883 875 884 0
227 883 884 0
885 881 228 0
884 224 881 0
884 881 885 0
227 884 885 0
887 885 228 0
886 227 885 0
886 885 887 0
60 886 887 0
889 866 57 0
888 221 866 0
888 866 889 0
230 888 889 0
891 863 221 0
890 17 863 0
890 863 891 0
229 890 891 0
892 888 230 0
891 221 888 0
891 888 892 0
229 891 892 0
894 892 230 0
893 229 892 0
893 892 894 0
59 893 894 0
896 886 60 0
895 227 886 0
895 886 896 0
231 895 896 0
897 883 227 0
889 57 883 0
889 883 897 0
230 889 897 0
898 895 231 0
897 227 895 0
897 895 898 0
230 897 898 0
899 898 231 0
894 230 898 0
894 898 899 0
59 894 899 0
901 896 60 0
900 231 896 0
900 896 901 0
233 900 901 0
903 899 231 0
902 59 899 0
902 899 903 0
232 902 903 0
904 900 233 0
903 231 900 0
903 900 904 0
232 903 904 0
906 904 233 0
905 232 904 0
905 904 906 0
18 905 906 0
908 849 17 0
907 216 849 0
907 849 908 0
234 907 908 0
2565 2552 216 0
909 907 234 0
2565 216 907 0
2565 907 909 0
2566 2565 909 0
910 909 234 0
2567 2566 909 0
2567 909 910 0
2568 2567 910 0
912 905 18 0
911 232 905 0
911 905 912 0
236 911 912 0
914 902 232 0
913 59 902 0
913 902 914 0
235 913 914 0
915 911 236 0
914 232 911 0
914 911 915 0
235 914 915 0
917 915 236 0
916 235 915 0
916 915 917 0
61 916 917 0
919 893 59 0
918 229 893 0
918 893 919 0
237 918 919 0
920 890 229 0
908 17 890 0
908 890 920 0
234 908 920 0
921 918 237 0
920 229 918 0
920 918 921 0
234 920 921 0
922 921 237 0
910 234 921 0
910 921 922 0
2568 910 922 0
924 916 61 0
923 235 916 0
923 916 924 0
238 923 924 0
925 913 235 0
919 59 913 0
919 913 925 0
237 919 925 0
926 923 238 0
925 235 923 0
925 923 926 0
237 925 926 0
2569 926 238 0
922 237 926 0
922 926 2569 0
2568 922 2569 0
928 924 61 0
927 238 924 0
927 924 928 0
2570 927 928 0
929 2569 238 0
2571 2569 929 0
2572 2571 929 0
2573 927 2570 0
929 238 927 0
929 927 2573 0
2572 929 2573 0
931 912 18 0
930 236 912 0
930 912 931 0
240 930 931 0
933 917 236 0
932 61 917 0
932 917 933 0
239 932 933 0
934 930 240 0
933 236 930 0
933 930 934 0
239 933 934 0
936 934 240 0
935 239 934 0
935 934 936 0
62 935 936 0
937 928 61 0
2574 2570 928 0
2574 928 937 0
241 2574 937 0
2575 2574 241 0
2576 2575 241 0
939 935 62 0
938 239 935 0
938 935 939 0
242 938 939 0
940 932 239 0
937 61 932 0
937 932 940 0
241 937 940 0
941 938 242 0
940 239 938 0
940 938 941 0
241 940 941 0
2577 941 242 0
2576 241 941 0
2576 941 2577 0
943 939 62 0
942 242 939 0
942 939 943 0
243 942 943 0
944 2577 242 0
2562 2577 944 0
226 2562 944 0
945 942 243 0
944 242 942 0
944 942 945 0
226 944 945 0
946 945 243 0
880 226 945 0
880 945 946 0
4 880 946 0
948 882 5 0
947 228 882 0
947 882 948 0
245 947 948 0
950 887 228 0
949 60 887 0
949 887 950 0
244 949 950 0
951 947 245 0
950 228 947 0
950 947 951 0
244 950 951 0
953 951 245 0
952 244 951 0
952 951 953 0
64 952 953 0
955 901 60 0
954 233 901 0
954 901 955 0
247 954 955 0
957 906 233 0
956 18 906 0
956 906 957 0
246 956 957 0
958 954 247 0
957 233 954 0
957 954 958 0
246 957 958 0
960 958 247 0
959 246 958 0
959 958 960 0
63 959 960 0
962 952 64 0
961 244 952 0
961 952 962 0
248 961 962 0
963 949 244 0
955 60 949 0
955 949 963 0
247 955 963 0
964 961 248 0
963 244 961 0
963 961 964 0
247 963 964 0
965 964 248 0
960 247 964 0
960 964 965 0
63 960 965 0
967 962 64 0
966 248 962 0
966 962 967 0
250 966 967 0
969 965 248 0
968 63 965 0
968 965 969 0
249 968 969 0
970 966 250 0
969 248 966 0
969 966 970 0
249 969 970 0
972 970 250 0
971 249 970 0
971 970 972 0
20 971 972 0
974 931 18 0
973 240 931 0
973 931 974 0
252 973 974 0
976 936 240 0
975 62 936 0
975 936 976 0
251 975 976 0
977 973 252 0
976 240 973 0
976 973 977 0
251 976 977 0
979 977 252 0
978 251 977 0
978 977 979 0
66 978 979 0
981 943 62 0
980 243 943 0
980 943 981 0
254 980 981 0
983 946 243 0
982 4 946 0
982 946 983 0
253 982 983 0
984 980 254 0
983 243 980 0
983 980 984 0
253 983 984 0
986 984 254 0
985 253 984 0
985 984 986 0
65 985 986 0
988 978 66 0
987 251 978 0
987 978 988 0
255 987 988 0
989 975 251 0
981 62 975 0
981 975 989 0
254 981 989 0
990 987 255 0
989 251 987 0
989 987 990 0
254 989 990 0
991 990 255 0
986 254 990 0
986 990 991 0
65 986 991 0
993 988 66 0
992 255 988 0
992 988 993 0
257 992 993 0
995 991 255 0
994 65 991 0
994 991 995 0
256 994 995 0
996 992 257 0
995 255 992 0
995 992 996 0
256 995 996 0
998 996 257 0
997 256 996 0
997 996 998 0
19 997 998 0
1000 971 20 0
999 249 971 0
999 971 1000 0
259 999 1000 0
1002 968 249 0
1001 63 968 0
1001 968 1002 0
258 1001 1002 0
1003 999 259 0
1002 249 999 0
1002 999 1003 0
258 1002 1003 0
1005 1003 259 0
1004 258 1003 0
1004 1003 1005 0
67 1004 1005 0
1007 959 63 0
1006 246 959 0
1006 959 1007 0
260 1006 1007 0
1008 956 246 0
974 18 956 0
974 956 1008 0
252 974 1008 0
1009 1006 260 0
1008 246 1006 0
1008 1006 1009 0
252 1008 1009 0
1010 1009 260 0
979 252 1009 0
979 1009 1010 0
66 979 1010 0
1012 1004 67 0
1011 258 1004 0
1011 1004 1012 0
261 1011 1012 0
1013 1001 258 0
1007 63 1001 0
1007 1001 1013 0
260 1007 1013 0
1014 1011 261 0
1013 258 1011 0
1013 1011 1014 0
260 1013 1014 0
1015 1014 261 0
1010 260 1014 0
1010 1014 1015 0
66 1010 1015 0
1017 1012 67 0
1016 261 1012 0
1016 1012 1017 0
262 1016 1017 0
1018 1015 261 0
993 66 1015 0
993 1015 1018 0
257 993 1018 0
1019 1016 262 0
1018 261 1016 0
1018 1016 1019 0
257 1018 1019 0
1020 1019 262 0
998 257 1019 0
998 1019 1020 0
19 998 1020 0
1022 1000 20 0
1021 259 1000 0
1021 1000 1022 0
264 1021 1022 0
1024 1005 259 0
1023 67 1005 0
1023 1005 1024 0
263 1023 1024 0
1025 1021 264 0
1024 259 1021 0
1024 1021 1025 0
263 1024 1025 0
1027 1025 264 0
1026 263 1025 0
1026 1025 1027 0
69 1026 1027 0
1029 1017 67 0
1028 262 1017 0
1028 1017 1029 0
266 1028 1029 0
1031 1020 262 0
1030 19 1020 0
1030 1020 1031 0
265 1030 1031 0
1032 1028 266 0
1031 262 1028 0
1031 1028 1032 0
265 1031 1032 0
1034 1032 266 0
1033 265 1032 0
1033 1032 1034 0
68 1033 1034 0
1036 1026 69 0
1035 263 1026 0
1035 1026 1036 0
267 1035 1036 0
1037 1023 263 0
1029 67 1023 0
1029 1023 1037 0
266 1029 1037 0
1038 1035 267 0
1037 263 1035 0
1037 1035 1038 0
266 1037 1038 0
1039 1038 267 0
1034 266 1038 0
1034 1038 1039 0
68 1034 1039 0
1041 1036 69 0
1040 267 1036 0
1040 1036 1041 0
269 1040 1041 0
1043 1039 267 0
1042 68 1039 0
1042 1039 1043 0
268 1042 1043 0
1044 1040 269 0
1043 267 1040 0
1043 1040 1044 0
268 1043 1044 0
1046 1044 269 0
1045 268 1044 0
1045 1044 1046 0
2 1045 1046 0
271 2578 2579 0
270 2580 2581 0
1047 2578 271 0
2581 2578 1047 0
270 2581 1047 0
1049 1047 271 0
1048 270 1047 0
1048 1047 1049 0
21 1048 1049 0
272 2582 2583 0
1050 2582 272 0
2584 2582 1050 0
2522 2584 1050 0
1051 1050 272 0
801 2522 1050 0
801 1050 1051 0
15 801 1051 0
1053 1048 21 0
1052 270 1048 0
1052 1048 1053 0
274 1052 1053 0
1054 2580 270 0
2585 2580 1054 0
273 2585 1054 0
1055 1052 274 0
1054 270 1052 0
1054 1052 1055 0
273 1054 1055 0
1057 1055 274 0
1056 273 1055 0
1056 1055 1057 0
70 1056 1057 0
1059 1056 70 0
1058 273 1056 0
1058 1056 1059 0
275 1058 1059 0
2586 2585 273 0
2587 1058 275 0
2586 273 1058 0
2586 1058 2587 0
1060 2587 275 0
2588 2587 1060 0
2589 2588 1060 0
1062 1059 70 0
1061 275 1059 0
1061 1059 1062 0
276 1061 1062 0
1063 1060 275 0
2583 2589 1060 0
2583 1060 1063 0
272 2583 1063 0
1064 1061 276 0
1063 275 1061 0
1063 1061 1064 0
272 1063 1064 0
1065 1064 276 0
1051 272 1064 0
1051 1064 1065 0
15 1051 1065 0
1067 1053 21 0
1066 274 1053 0
1066 1053 1067 0
278 1066 1067 0
1069 1057 274 0
1068 70 1057 0
1068 1057 1069 0
277 1068 1069 0
1070 1066 278 0
1069 274 1066 0
1069 1066 1070 0
277 1069 1070 0
1072 1070 278 0
1071 277 1070 0
1071 1070 1072 0
71 1071 1072 0
1074 1062 70 0
1073 276 1062 0
1073 1062 1074 0
279 1073 1074 0
1075 1065 276 0
783 15 1065 0
783 1065 1075 0
199 783 1075 0
1076 1073 279 0
1075 276 1073 0
1075 1073 1076 0
199 1075 1076 0
1077 1076 279 0
780 199 1076 0
780 1076 1077 0
52 780 1077 0
1079 1071 71 0
1078 277 1071 0
1078 1071 1079 0
280 1078 1079 0
1080 1068 277 0
1074 70 1068 0
1074 1068 1080 0
279 1074 1080 0
1081 1078 280 0
1080 277 1078 0
1080 1078 1081 0
279 1080 1081 0
1082 1081 280 0
1077 279 1081 0
1077 1081 1082 0
52 1077 1082 0
1084 1079 71 0
1083 280 1079 0
1083 1079 1084 0
281 1083 1084 0
1085 1082 280 0
774 52 1082 0
774 1082 1085 0
196 774 1085 0
1086 1083 281 0
1085 280 1083 0
1085 1083 1086 0
196 1085 1086 0
1087 1086 281 0
771 196 1086 0
771 1086 1087 0
1 771 1087 0
1089 1045 2 0
1088 268 1045 0
1088 1045 1089 0
283 1088 1089 0
1091 1042 268 0
1090 68 1042 0
1090 1042 1091 0
282 1090 1091 0
1092 1088 283 0
1091 268 1088 0
1091 1088 1092 0
282 1091 1092 0
1094 1092 283 0
1093 282 1092 0
1093 1092 1094 0
73 1093 1094 0
1096 1033 68 0
1095 265 1033 0
1095 1033 1096 0
285 1095 1096 0
1098 1030 265 0
1097 19 1030 0
1097 1030 1098 0
284 1097 1098 0
1099 1095 285 0
1098 265 1095 0
1098 1095 1099 0
284 1098 1099 0
1101 1099 285 0
1100 284 1099 0
1100 1099 1101 0
72 1100 1101 0
1103 1093 73 0
1102 282 1093 0
1102 1093 1103 0
286 1102 1103 0
1104 1090 282 0
1096 68 1090 0
1096 1090 1104 0
285 1096 1104 0
1105 1102 286 0
1104 282 1102 0
1104 1102 1105 0
285 1104 1105 0
1106 1105 286 0
1101 285 1105 0
1101 1105 1106 0
72 1101 1106 0
1108 1103 73 0
1107 286 1103 0
1107 1103 1108 0
288 1107 1108 0
1110 1106 286 0
1109 72 1106 0
1109 1106 1110 0
287 1109 1110 0
1111 1107 288 0
1110 286 1107 0
1110 1107 1111 0
287 1110 1111 0
1113 1111 288 0
1112 287 1111 0
1112 1111 1113 0
23 1112 1113 0
1115 997 19 0
1114 256 997 0
1114 997 1115 0
290 1114 1115 0
1117 994 256 0
1116 65 994 0
1116 994 1117 0
289 1116 1117 0
1118 1114 290 0
1117 256 1114 0
1117 1114 1118 0
289 1117 1118 0
1120 1118 290 0
1119 289 1118 0
1119 1118 1120 0
75 1119 1120 0
1122 985 65 0
1121 253 985 0
1121 985 1122 0
292 1121 1122 0
1124 982 253 0
1123 4 982 0
1123 982 1124 0
291 1123 1124 0
1125 1121 292 0
1124 253 1121 0
1124 1121 1125 0
291 1124 1125 0
1127 1125 292 0
1126 291 1125 0
1126 1125 1127 0
74 1126 1127 0
1129 1119 75 0
1128 289 1119 0
1128 1119 1129 0
293 1128 1129 0
1130 1116 289 0
1122 65 1116 0
1122 1116 1130 0
292 1122 1130 0
1131 1128 293 0
1130 289 1128 0
1130 1128 1131 0
292 1130 1131 0
1132 1131 293 0
1127 292 1131 0
1127 1131 1132 0
74 1127 1132 0
1134 1129 75 0
1133 293 1129 0
1133 1129 1134 0
295 1133 1134 0
1136 1132 293 0
1135 74 1132 0
1135 1132 1136 0
294 1135 1136 0
1137 1133 295 0
1136 293 1133 0
1136 1133 1137 0
294 1136 1137 0
1139 1137 295 0
1138 294 1137 0
1138 1137 1139 0
22 1138 1139 0
1141 1112 23 0
1140 287 1112 0
1140 1112 1141 0
297 1140 1141 0
1143 1109 287 0
1142 72 1109 0
1142 1109 1143 0
296 1142 1143 0
1144 1140 297 0
1143 287 1140 0
1143 1140 1144 0
296 1143 1144 0
1146 1144 297 0
1145 296 1144 0
1145 1144 1146 0
76 1145 1146 0
1148 1100 72 0
1147 284 1100 0
1147 1100 1148 0
298 1147 1148 0
1149 1097 284 0
1115 19 1097 0
1115 1097 1149 0
290 1115 1149 0
1150 1147 298 0
1149 284 1147 0
1149 1147 1150 0
290 1149 1150 0
1151 1150 298 0
1120 290 1150 0
1120 1150 1151 0
75 1120 1151 0
1153 1145 76 0
1152 296 1145 0
1152 1145 1153 0
299 1152 1153 0
1154 1142 296 0
1148 72 1142 0
1148 1142 1154 0
298 1148 1154 0
1155 1152 299 0
1154 296 1152 0
1154 1152 1155 0
298 1154 1155 0
1156 1155 299 0
1151 298 1155 0
1151 1155 1156 0
75 1151 1156 0
1158 1153 76 0
1157 299 1153 0
1157 1153 1158 0
300 1157 1158 0
1159 1156 299 0
1134 75 1156 0
1134 1156 1159 0
295 1134 1159 0
1160 1157 300 0
1159 299 1157 0
1159 1157 1160 0
295 1159 1160 0
1161 1160 300 0
1139 295 1160 0
1139 1160 1161 0
22 1139 1161 0
1163 1141 23 0
1162 297 1141 0
1162 1141 1163 0
302 1162 1163 0
1165 1146 297 0
1164 76 1146 0
1164 1146 1165 0
301 1164 1165 0
1166 1162 302 0
1165 297 1162 0
1165 1162 1166 0
301 1165 1166 0
1168 1166 302 0
1167 301 1166 0
1167 1166 1168 0
78 1167 1168 0
1170 1158 76 0
1169 300 1158 0
1169 1158 1170 0
304 1169 1170 0
1172 1161 300 0
1171 22 1161 0
1171 1161 1172 0
303 1171 1172 0
1173 1169 304 0
1172 300 1169 0
1172 1169 1173 0
303 1172 1173 0
1175 1173 304 0
1174 303 1173 0
1174 1173 1175 0
77 1174 1175 0
1177 1167 78 0
1176 301 1167 0
1176 1167 1177 0
305 1176 1177 0
1178 1164 301 0
1170 76 1164 0
1170 1164 1178 0
304 1170 1178 0
1179 1176 305 0
1178 301 1176 0
1178 1176 1179 0
304 1178 1179 0
1180 1179 305 0
1175 304 1179 0
1175 1179 1180 0
77 1175 1180 0
1182 1177 78 0
1181 305 1177 0
1181 1177 1182 0
307 1181 1182 0
1184 1180 305 0
1183 77 1180 0
1183 1180 1184 0
306 1183 1184 0
1185 1181 307 0
1184 305 1181 0
1184 1181 1185 0
306 1184 1185 0
1187 1185 307 0
1186 306 1185 0
1186 1185 1187 0
6 1186 1187 0
2590 2564 4 0
1189 1186 6 0
1188 306 1186 0
1188 1186 1189 0
309 1188 1189 0
1191 1183 306 0
1190 77 1183 0
1190 1183 1191 0
308 1190 1191 0
1192 1188 309 0
1191 306 1188 0
1191 1188 1192 0
308 1191 1192 0
1194 1192 309 0
1193 308 1192 0
1193 1192 1194 0
80 1193 1194 0
1196 1174 77 0
1195 303 1174 0
1195 1174 1196 0
311 1195 1196 0
1198 1171 303 0
1197 22 1171 0
1197 1171 1198 0
310 1197 1198 0
1199 1195 311 0
1198 303 1195 0
1198 1195 1199 0
310 1198 1199 0
1201 1199 311 0
1200 310 1199 0
1200 1199 1201 0
79 1200 1201 0
1203 1193 80 0
1202 308 1193 0
1202 1193 1203 0
312 1202 1203 0
1204 1190 308 0
1196 77 1190 0
1196 1190 1204 0
311 1196 1204 0
1205 1202 312 0
1204 308 1202 0
1204 1202 1205 0
311 1204 1205 0
1206 1205 312 0
1201 311 1205 0
1201 1205 1206 0
79 1201 1206 0
1208 1203 80 0
1207 312 1203 0
1207 1203 1208 0
314 1207 1208 0
1210 1206 312 0
1209 79 1206 0
1209 1206 1210 0
313 1209 1210 0
1211 1207 314 0
1210 312 1207 0
1210 1207 1211 0
313 1210 1211 0
1213 1211 314 0
1212 313 1211 0
1212 1211 1213 0
24 1212 1213 0
1215 1138 22 0
1214 294 1138 0
1214 1138 1215 0
316 1214 1215 0
1217 1135 294 0
1216 74 1135 0
1216 1135 1217 0
315 1216 1217 0
1218 1214 316 0
1217 294 1214 0
1217 1214 1218 0
315 1217 1218 0
1220 1218 316 0
1219 315 1218 0
1219 1218 1220 0
81 1219 1220 0
1222 1126 74 0
1221 291 1126 0
1221 1126 1222 0
317 1221 1222 0
1223 1123 291 0
2590 4 1123 0
2590 1123 1223 0
2591 2590 1223 0
1224 1221 317 0
1223 291 1221 0
1223 1221 1224 0
2591 1223 1224 0
2592 1224 317 0
2593 2591 1224 0
2593 1224 2592 0
1226 1219 81 0
1225 315 1219 0
1225 1219 1226 0
318 1225 1226 0
1227 1216 315 0
1222 74 1216 0
1222 1216 1227 0
317 1222 1227 0
1228 1225 318 0
1227 315 1225 0
1227 1225 1228 0
317 1227 1228 0
2594 1228 318 0
2592 317 1228 0
2592 1228 2594 0
1230 1226 81 0
1229 318 1226 0
1229 1226 1230 0
319 1229 1230 0
2595 2594 318 0
2596 1229 319 0
2595 318 1229 0
2595 1229 2596 0
2597 2596 319 0
1232 1212 24 0
1231 313 1212 0
1231 1212 1232 0
321 1231 1232 0
1234 1209 313 0
1233 79 1209 0
1233 1209 1234 0
320 1233 1234 0
1235 1231 321 0
1234 313 1231 0
1234 1231 1235 0
320 1234 1235 0
1237 1235 321 0
1236 320 1235 0
1236 1235 1237 0
82 1236 1237 0
1239 1200 79 0
1238 310 1200 0
1238 1200 1239 0
322 1238 1239 0
1240 1197 310 0
1215 22 1197 0
1215 1197 1240 0
316 1215 1240 0
1241 1238 322 0
1240 310 1238 0
1240 1238 1241 0
316 1240 1241 0
1242 1241 322 0
1220 316 1241 0
1220 1241 1242 0
81 1220 1242 0
1244 1236 82 0
1243 320 1236 0
1243 1236 1244 0
323 1243 1244 0
1245 1233 320 0
1239 79 1233 0
1239 1233 1245 0
322 1239 1245 0
1246 1243 323 0
1245 320 1243 0
1245 1243 1246 0
322 1245 1246 0
1247 1246 323 0
1242 322 1246 0
1242 1246 1247 0
81 1242 1247 0
1248 1244 82 0
2598 323 1244 0
2598 1244 1248 0
2599 2598 1248 0
2600 1247 323 0
1230 81 1247 0
1230 1247 2600 0
319 1230 2600 0
2600 323 2598 0
319 2600 2601 0
2597 319 2601 0
1250 1232 24 0
1249 321 1232 0
1249 1232 1250 0
324 1249 1250 0
1252 1237 321 0
1251 82 1237 0
1251 1237 1252 0
2602 1251 1252 0
2603 1249 324 0
1252 321 1249 0
1252 1249 2603 0
2602 1252 2603 0
2604 2603 324 0
2605 1248 82 0
2606 2599 1248 0
2606 1248 2605 0
1253 1251 2602 0
2605 82 1251 0
2605 1251 1253 0
2607 2605 1253 0
1253 2602 2608 0
1253 2608 2609 0
2607 1253 2609 0
1255 1189 6 0
1254 309 1189 0
1254 1189 1255 0
326 1254 1255 0
1257 1194 309 0
1256 80 1194 0
1256 1194 1257 0
325 1256 1257 0
1258 1254 326 0
1257 309 1254 0
1257 1254 1258 0
325 1257 1258 0
1260 1258 326 0
1259 325 1258 0
1259 1258 1260 0
84 1259 1260 0
1262 1208 80 0
1261 314 1208 0
1261 1208 1262 0
328 1261 1262 0
1264 1213 314 0
1263 24 1213 0
1263 1213 1264 0
327 1263 1264 0
1265 1261 328 0
1264 314 1261 0
1264 1261 1265 0
327 1264 1265 0
1267 1265 328 0
1266 327 1265 0
1266 1265 1267 0
83 1266 1267 0
1269 1259 84 0
1268 325 1259 0
1268 1259 1269 0
329 1268 1269 0
1270 1256 325 0
1262 80 1256 0
1262 1256 1270 0
328 1262 1270 0
1271 1268 329 0
1270 325 1268 0
1270 1268 1271 0
328 1270 1271 0
1272 1271 329 0
1267 328 1271 0
1267 1271 1272 0
83 1267 1272 0
1274 1269 84 0
1273 329 1269 0
1273 1269 1274 0
331 1273 1274 0
1276 1272 329 0
1275 83 1272 0
1275 1272 1276 0
330 1275 1276 0
1277 1273 331 0
1276 329 1273 0
1276 1273 1277 0
330 1276 1277 0
1279 1277 331 0
1278 330 1277 0
1278 1277 1279 0
25 1278 1279 0
1281 1250 24 0
1280 324 1250 0
1280 1250 1281 0
333 1280 1281 0
2610 2604 324 0
332 2611 2610 0
1282 1280 333 0
2610 324 1280 0
2610 1280 1282 0
332 2610 1282 0
1284 1282 333 0
1283 332 1282 0
1283 1282 1284 0
85 1283 1284 0
1285 1283 85 0
2612 332 1283 0
2612 1283 1285 0
2613 2612 1285 0
2614 2611 332 0
2614 332 2612 0
1287 1285 85 0
1286 2613 1285 0
1286 1285 1287 0
334 1286 1287 0
271 2579 2615 0
1288 1286 334 0
2615 2613 1286 0
2615 1286 1288 0
271 2615 1288 0
1289 1288 334 0
1049 271 1288 0
1049 1288 1289 0
21 1049 1289 0
1291 1278 25 0
1290 330 1278 0
1290 1278 1291 0
336 1290 1291 0
1293 1275 330 0
1292 83 1275 0
1292 1275 1293 0
335 1292 1293 0
1294 1290 336 0
1293 330 1290 0
1293 1290 1294 0
335 1293 1294 0
1296 1294 336 0
1295 335 1294 0
1295 1294 1296 0
86 1295 1296 0
1298 1266 83 0
1297 327 1266 0
1297 1266 1298 0
337 1297 1298 0
1299 1263 327 0
1281 24 1263 0
1281 1263 1299 0
333 1281 1299 0
1300 1297 337 0
1299 327 1297 0
1299 1297 1300 0
333 1299 1300 0
1301 1300 337 0
1284 333 1300 0
1284 1300 1301 0
85 1284 1301 0
1303 1295 86 0
1302 335 1295 0
1302 1295 1303 0
338 1302 1303 0
1304 1292 335 0
1298 83 1292 0
1298 1292 1304 0
337 1298 1304 0
1305 1302 338 0
1304 335 1302 0
1304 1302 1305 0
337 1304 1305 0
1306 1305 338 0
1301 337 1305 0
1301 1305 1306 0
85 1301 1306 0
1308 1303 86 0
1307 338 1303 0
1307 1303 1308 0
339 1307 1308 0
1309 1306 338 0
1287 85 1306 0
1287 1306 1309 0
334 1287 1309 0
1310 1307 339 0
1309 338 1307 0
1309 1307 1310 0
334 1309 1310 0
1311 1310 339 0
1289 334 1310 0
1289 1310 1311 0
21 1289 1311 0
1313 1291 25 0
1312 336 1291 0
1312 1291 1313 0
341 1312 1313 0
1315 1296 336 0
1314 86 1296 0
1314 1296 1315 0
340 1314 1315 0
1316 1312 341 0
1315 336 1312 0
1315 1312 1316 0
340 1315 1316 0
1318 1316 341 0
1317 340 1316 0
1317 1316 1318 0
87 1317 1318 0
1320 1308 86 0
1319 339 1308 0
1319 1308 1320 0
342 1319 1320 0
1321 1311 339 0
1067 21 1311 0
1067 1311 1321 0
278 1067 1321 0
1322 1319 342 0
1321 339 1319 0
1321 1319 1322 0
278 1321 1322 0
1323 1322 342 0
1072 278 1322 0
1072 1322 1323 0
71 1072 1323 0
1325 1317 87 0
1324 340 1317 0
1324 1317 1325 0
343 1324 1325 0
1326 1314 340 0
1320 86 1314 0
1320 1314 1326 0
342 1320 1326 0
1327 1324 343 0
1326 340 1324 0
1326 1324 1327 0
342 1326 1327 0
1328 1327 343 0
1323 342 1327 0
1323 1327 1328 0
71 1323 1328 0
1330 1325 87 0
1329 343 1325 0
1329 1325 1330 0
344 1329 1330 0
1331 1328 343 0
1084 71 1328 0
1084 1328 1331 0
281 1084 1331 0
1332 1329 344 0
1331 343 1329 0
1331 1329 1332 0
281 1331 1332 0
1333 1332 344 0
1087 281 1332 0
1087 1332 1333 0
1 1087 1333 0
1335 1089 2 0
1334 283 1089 0
1334 1089 1335 0
346 1334 1335 0
1337 1094 283 0
1336 73 1094 0
1336 1094 1337 0
345 1336 1337 0
1338 1334 346 0
1337 283 1334 0
1337 1334 1338 0
345 1337 1338 0
1340 1338 346 0
1339 345 1338 0
1339 1338 1340 0
89 1339 1340 0
1342 1108 73 0
1341 288 1108 0
1341 1108 1342 0
348 1341 1342 0
1344 1113 288 0
1343 23 1113 0
1343 1113 1344 0
347 1343 1344 0
1345 1341 348 0
1344 288 1341 0
1344 1341 1345 0
347 1344 1345 0
1347 1345 348 0
1346 347 1345 0
1346 1345 1347 0
88 1346 1347 0
1349 1339 89 0
1348 345 1339 0
1348 1339 1349 0
349 1348 1349 0
1350 1336 345 0
1342 73 1336 0
1342 1336 1350 0
348 1342 1350 0
1351 1348 349 0
1350 345 1348 0
1350 1348 1351 0
348 1350 1351 0
1352 1351 349 0
1347 348 1351 0
1347 1351 1352 0
88 1347 1352 0
1354 1349 89 0
1353 349 1349 0
1353 1349 1354 0
351 1353 1354 0
1356 1352 349 0
1355 88 1352 0
1355 1352 1356 0
350 1355 1356 0
1357 1353 351 0
1356 349 1353 0
1356 1353 1357 0
350 1356 1357 0
1359 1357 351 0
1358 350 1357 0
1358 1357 1359 0
27 1358 1359 0
1361 1163 23 0
1360 302 1163 0
1360 1163 1361 0
353 1360 1361 0
1363 1168 302 0
1362 78 1168 0
1362 1168 1363 0
352 1362 1363 0
1364 1360 353 0
1363 302 1360 0
1363 1360 1364 0
352 1363 1364 0
1366 1364 353 0
1365 352 1364 0
1365 1364 1366 0
91 1365 1366 0
1368 1182 78 0
1367 307 1182 0
1367 1182 1368 0
355 1367 1368 0
1370 1187 307 0
1369 6 1187 0
1369 1187 1370 0
354 1369 1370 0
1371 1367 355 0
1370 307 1367 0
1370 1367 1371 0
354 1370 1371 0
1373 1371 355 0
1372 354 1371 0
1372 1371 1373 0
90 1372 1373 0
1375 1365 91 0
1374 352 1365 0
1374 1365 1375 0
356 1374 1375 0
1376 1362 352 0
1368 78 1362 0
1368 1362 1376 0
355 1368 1376 0
1377 1374 356 0
1376 352 1374 0
1376 1374 1377 0
355 1376 1377 0
1378 1377 356 0
1373 355 1377 0
1373 1377 1378 0
90 1373 1378 0
1380 1375 91 0
1379 356 1375 0
1379 1375 1380 0
358 1379 1380 0
1382 1378 356 0
1381 90 1378 0
1381 1378 1382 0
357 1381 1382 0
1383 1379 358 0
1382 356 1379 0
1382 1379 1383 0
357 1382 1383 0
1385 1383 358 0
1384 357 1383 0
1384 1383 1385 0
26 1384 1385 0
1387 1358 27 0
1386 350 1358 0
1386 1358 1387 0
360 1386 1387 0
1389 1355 350 0
1388 88 1355 0
1388 1355 1389 0
359 1388 1389 0
1390 1386 360 0
1389 350 1386 0
1389 1386 1390 0
359 1389 1390 0
1392 1390 360 0
1391 359 1390 0
1391 1390 1392 0
92 1391 1392 0
1394 1346 88 0
1393 347 1346 0
1393 1346 1394 0
361 1393 1394 0
1395 1343 347 0
1361 23 1343 0
1361 1343 1395 0
353 1361 1395 0
1396 1393 361 0
1395 347 1393 0
1395 1393 1396 0
353 1395 1396 0
1397 1396 361 0
1366 353 1396 0
1366 1396 1397 0
91 1366 1397 0
1399 1391 92 0
1398 359 1391 0
1398 1391 1399 0
362 1398 1399 0
1400 1388 359 0
1394 88 1388 0
1394 1388 1400 0
361 1394 1400 0
1401 1398 362 0
1400 359 1398 0
1400 1398 1401 0
361 1400 1401 0
1402 1401 362 0
1397 361 1401 0
1397 1401 1402 0
91 1397 1402 0
1404 1399 92 0
1403 362 1399 0
1403 1399 1404 0
363 1403 1404 0
1405 1402 362 0
1380 91 1402 0
1380 1402 1405 0
358 1380 1405 0
1406 1403 363 0
1405 362 1403 0
1405 1403 1406 0
358 1405 1406 0
1407 1406 363 0
1385 358 1406 0
1385 1406 1407 0
26 1385 1407 0
1409 1387 27 0
1408 360 1387 0
1408 1387 1409 0
365 1408 1409 0
1411 1392 360 0
1410 92 1392 0
1410 1392 1411 0
364 1410 1411 0
1412 1408 365 0
1411 360 1408 0
1411 1408 1412 0
364 1411 1412 0
1414 1412 365 0
1413 364 1412 0
1413 1412 1414 0
94 1413 1414 0
1416 1404 92 0
1415 363 1404 0
1415 1404 1416 0
367 1415 1416 0
1418 1407 363 0
1417 26 1407 0
1417 1407 1418 0
366 1417 1418 0
1419 1415 367 0
1418 363 1415 0
1418 1415 1419 0
366 1418 1419 0
1421 1419 367 0
1420 366 1419 0
1420 1419 1421 0
93 1420 1421 0
1423 1413 94 0
1422 364 1413 0
1422 1413 1423 0
368 1422 1423 0
1424 1410 364 0
1416 92 1410 0
1416 1410 1424 0
367 1416 1424 0
1425 1422 368 0
1424 364 1422 0
1424 1422 1425 0
367 1424 1425 0
1426 1425 368 0
1421 367 1425 0
1421 1425 1426 0
93 1421 1426 0
1428 1423 94 0
1427 368 1423 0
1427 1423 1428 0
370 1427 1428 0
1430 1426 368 0
1429 93 1426 0
1429 1426 1430 0
369 1429 1430 0
1431 1427 370 0
1430 368 1427 0
1430 1427 1431 0
369 1430 1431 0
1433 1431 370 0
1432 369 1431 0
1432 1431 1433 0
7 1432 1433 0
1435 1255 6 0
1434 326 1255 0
1434 1255 1435 0
372 1434 1435 0
1437 1260 326 0
1436 84 1260 0
1436 1260 1437 0
371 1436 1437 0
1438 1434 372 0
1437 326 1434 0
1437 1434 1438 0
371 1437 1438 0
1440 1438 372 0
1439 371 1438 0
1439 1438 1440 0
96 1439 1440 0
1442 1274 84 0
1441 331 1274 0
1441 1274 1442 0
374 1441 1442 0
1444 1279 331 0
1443 25 1279 0
1443 1279 1444 0
373 1443 1444 0
1445 1441 374 0
1444 331 1441 0
1444 1441 1445 0
373 1444 1445 0
1447 1445 374 0
1446 373 1445 0
1446 1445 1447 0
95 1446 1447 0
1449 1439 96 0
1448 371 1439 0
1448 1439 1449 0
375 1448 1449 0
1450 1436 371 0
1442 84 1436 0
1442 1436 1450 0
374 1442 1450 0
1451 1448 375 0
1450 371 1448 0
1450 1448 1451 0
374 1450 1451 0
1452 1451 375 0
1447 374 1451 0
1447 1451 1452 0
95 1447 1452 0
1454 1449 96 0
1453 375 1449 0
1453 1449 1454 0
377 1453 1454 0
1456 1452 375 0
1455 95 1452 0
1455 1452 1456 0
376 1455 1456 0
1457 1453 377 0
1456 375 1453 0
1456 1453 1457 0
376 1456 1457 0
1459 1457 377 0
1458 376 1457 0
1458 1457 1459 0
28 1458 1459 0
1461 1313 25 0
1460 341 1313 0
1460 1313 1461 0
379 1460 1461 0
1463 1318 341 0
1462 87 1318 0
1462 1318 1463 0
378 1462 1463 0
1464 1460 379 0
1463 341 1460 0
1463 1460 1464 0
378 1463 1464 0
1466 1464 379 0
1465 378 1464 0
1465 1464 1466 0
97 1465 1466 0
1468 1330 87 0
1467 344 1330 0
1467 1330 1468 0
380 1467 1468 0
1469 1333 344 0
721 1 1333 0
721 1333 1469 0
183 721 1469 0
1470 1467 380 0
1469 344 1467 0
1469 1467 1470 0
183 1469 1470 0
1471 1470 380 0
718 183 1470 0
718 1470 1471 0
48 718 1471 0
1473 1465 97 0
1472 378 1465 0
1472 1465 1473 0
381 1472 1473 0
1474 1462 378 0
1468 87 1462 0
1468 1462 1474 0
380 1468 1474 0
1475 1472 381 0
1474 378 1472 0
1474 1472 1475 0
380 1474 1475 0
1476 1475 381 0
1471 380 1475 0
1471 1475 1476 0
48 1471 1476 0
1478 1473 97 0
1477 381 1473 0
1477 1473 1478 0
382 1477 1478 0
1479 1476 381 0
712 48 1476 0
712 1476 1479 0
180 712 1479 0
1480 1477 382 0
1479 381 1477 0
1479 1477 1480 0
180 1479 1480 0
1481 1480 382 0
709 180 1480 0
709 1480 1481 0
12 709 1481 0
1483 1458 28 0
1482 376 1458 0
1482 1458 1483 0
384 1482 1483 0
1485 1455 376 0
1484 95 1455 0
1484 1455 1485 0
383 1484 1485 0
1486 1482 384 0
1485 376 1482 0
1485 1482 1486 0
383 1485 1486 0
1488 1486 384 0
1487 383 1486 0
1487 1486 1488 0
98 1487 1488 0
1490 1446 95 0
1489 373 1446 0
1489 1446 1490 0
385 1489 1490 0
1491 1443 373 0
1461 25 1443 0
1461 1443 1491 0
379 1461 1491 0
1492 1489 385 0
1491 373 1489 0
1491 1489 1492 0
379 1491 1492 0
1493 1492 385 0
1466 379 1492 0
1466 1492 1493 0
97 1466 1493 0
1495 1487 98 0
1494 383 1487 0
1494 1487 1495 0
386 1494 1495 0
1496 1484 383 0
1490 95 1484 0
1490 1484 1496 0
385 1490 1496 0
1497 1494 386 0
1496 383 1494 0
1496 1494 1497 0
385 1496 1497 0
1498 1497 386 0
1493 385 1497 0
1493 1497 1498 0
97 1493 1498 0
1500 1495 98 0
1499 386 1495 0
1499 1495 1500 0
387 1499 1500 0
1501 1498 386 0
1478 97 1498 0
1478 1498 1501 0
382 1478 1501 0
1502 1499 387 0
1501 386 1499 0
1501 1499 1502 0
382 1501 1502 0
1503 1502 387 0
1481 382 1502 0
1481 1502 1503 0
12 1481 1503 0
1505 1483 28 0
1504 384 1483 0
1504 1483 1505 0
389 1504 1505 0
1507 1488 384 0
1506 98 1488 0
1506 1488 1507 0
388 1506 1507 0
1508 1504 389 0
1507 384 1504 0
1507 1504 1508 0
388 1507 1508 0
1510 1508 389 0
1509 388 1508 0
1509 1508 1510 0
99 1509 1510 0
1512 1500 98 0
1511 387 1500 0
1511 1500 1512 0
390 1511 1512 0
1513 1503 387 0
691 12 1503 0
691 1503 1513 0
174 691 1513 0
1514 1511 390 0
1513 387 1511 0
1513 1511 1514 0
174 1513 1514 0
1515 1514 390 0
688 174 1514 0
688 1514 1515 0
45 688 1515 0
1517 1509 99 0
1516 388 1509 0
1516 1509 1517 0
391 1516 1517 0
1518 1506 388 0
1512 98 1506 0
1512 1506 1518 0
390 1512 1518 0
1519 1516 391 0
1518 388 1516 0
1518 1516 1519 0
390 1518 1519 0
1520 1519 391 0
1515 390 1519 0
1515 1519 1520 0
45 1515 1520 0
1522 1517 99 0
1521 391 1517 0
1521 1517 1522 0
392 1521 1522 0
1523 1520 391 0
682 45 1520 0
682 1520 1523 0
171 682 1523 0
1524 1521 392 0
1523 391 1521 0
1523 1521 1524 0
171 1523 1524 0
1525 1524 392 0
679 171 1524 0
679 1524 1525 0
3 679 1525 0
1527 1432 7 0
1526 369 1432 0
1526 1432 1527 0
394 1526 1527 0
1529 1429 369 0
1528 93 1429 0
1528 1429 1529 0
393 1528 1529 0
1530 1526 394 0
1529 369 1526 0
1529 1526 1530 0
393 1529 1530 0
1532 1530 394 0
1531 393 1530 0
1531 1530 1532 0
101 1531 1532 0
1534 1420 93 0
1533 366 1420 0
1533 1420 1534 0
396 1533 1534 0
1536 1417 366 0
1535 26 1417 0
1535 1417 1536 0
395 1535 1536 0
1537 1533 396 0
1536 366 1533 0
1536 1533 1537 0
395 1536 1537 0
1539 1537 396 0
1538 395 1537 0
1538 1537 1539 0
100 1538 1539 0
1541 1531 101 0
1540 393 1531 0
1540 1531 1541 0
397 1540 1541 0
1542 1528 393 0
1534 93 1528 0
1534 1528 1542 0
396 1534 1542 0
1543 1540 397 0
1542 393 1540 0
1542 1540 1543 0
396 1542 1543 0
1544 1543 397 0
1539 396 1543 0
1539 1543 1544 0
100 1539 1544 0
1546 1541 101 0
1545 397 1541 0
1545 1541 1546 0
399 1545 1546 0
1548 1544 397 0
1547 100 1544 0
1547 1544 1548 0
398 1547 1548 0
1549 1545 399 0
1548 397 1545 0
1548 1545 1549 0
398 1548 1549 0
1551 1549 399 0
1550 398 1549 0
1550 1549 1551 0
29 1550 1551 0
1553 1384 26 0
1552 357 1384 0
1552 1384 1553 0
401 1552 1553 0
1555 1381 357 0
1554 90 1381 0
1554 1381 1555 0
400 1554 1555 0
1556 1552 401 0
1555 357 1552 0
1555 1552 1556 0
400 1555 1556 0
1558 1556 401 0
1557 400 1556 0
1557 1556 1558 0
102 1557 1558 0
1560 1372 90 0
1559 354 1372 0
1559 1372 1560 0
402 1559 1560 0
1561 1369 354 0
1435 6 1369 0
1435 1369 1561 0
372 1435 1561 0
1562 1559 402 0
1561 354 1559 0
1561 1559 1562 0
372 1561 1562 0
1563 1562 402 0
1440 372 1562 0
1440 1562 1563 0
96 1440 1563 0
1565 1557 102 0
1564 400 1557 0
1564 1557 1565 0
403 1564 1565 0
1566 1554 400 0
1560 90 1554 0
1560 1554 1566 0
402 1560 1566 0
1567 1564 403 0
1566 400 1564 0
1566 1564 1567 0
402 1566 1567 0
1568 1567 403 0
1563 402 1567 0
1563 1567 1568 0
96 1563 1568 0
1570 1565 102 0
1569 403 1565 0
1569 1565 1570 0
404 1569 1570 0
1571 1568 403 0
1454 96 1568 0
1454 1568 1571 0
377 1454 1571 0
1572 1569 404 0
1571 403 1569 0
1571 1569 1572 0
377 1571 1572 0
1573 1572 404 0
1459 377 1572 0
1459 1572 1573 0
28 1459 1573 0
1575 1550 29 0
1574 398 1550 0
1574 1550 1575 0
406 1574 1575 0
1577 1547 398 0
1576 100 1547 0
1576 1547 1577 0
405 1576 1577 0
1578 1574 406 0
1577 398 1574 0
1577 1574 1578 0
405 1577 1578 0
1580 1578 406 0
1579 405 1578 0
1579 1578 1580 0
103 1579 1580 0
1582 1538 100 0
1581 395 1538 0
1581 1538 1582 0
407 1581 1582 0
1583 1535 395 0
1553 26 1535 0
1553 1535 1583 0
401 1553 1583 0
1584 1581 407 0
1583 395 1581 0
1583 1581 1584 0
401 1583 1584 0
1585 1584 407 0
1558 401 1584 0
1558 1584 1585 0
102 1558 1585 0
1587 1579 103 0
1586 405 1579 0
1586 1579 1587 0
408 1586 1587 0
1588 1576 405 0
1582 100 1576 0
1582 1576 1588 0
407 1582 1588 0
1589 1586 408 0
1588 405 1586 0
1588 1586 1589 0
407 1588 1589 0
1590 1589 408 0
1585 407 1589 0
1585 1589 1590 0
102 1585 1590 0
1592 1587 103 0
1591 408 1587 0
1591 1587 1592 0
409 1591 1592 0
1593 1590 408 0
1570 102 1590 0
1570 1590 1593 0
404 1570 1593 0
1594 1591 409 0
1593 408 1591 0
1593 1591 1594 0
404 1593 1594 0
1595 1594 409 0
1573 404 1594 0
1573 1594 1595 0
28 1573 1595 0
1597 1575 29 0
1596 406 1575 0
1596 1575 1597 0
411 1596 1597 0
1599 1580 406 0
1598 103 1580 0
1598 1580 1599 0
410 1598 1599 0
1600 1596 411 0
1599 406 1596 0
1599 1596 1600 0
410 1599 1600 0
1602 1600 411 0
1601 410 1600 0
1601 1600 1602 0
104 1601 1602 0
1604 1592 103 0
1603 409 1592 0
1603 1592 1604 0
412 1603 1604 0
1605 1595 409 0
1505 28 1595 0
1505 1595 1605 0
389 1505 1605 0
1606 1603 412 0
1605 409 1603 0
1605 1603 1606 0
389 1605 1606 0
1607 1606 412 0
1510 389 1606 0
1510 1606 1607 0
99 1510 1607 0
1609 1601 104 0
1608 410 1601 0
1608 1601 1609 0
413 1608 1609 0
1610 1598 410 0
1604 103 1598 0
1604 1598 1610 0
412 1604 1610 0
1611 1608 413 0
1610 410 1608 0
1610 1608 1611 0
412 1610 1611 0
1612 1611 413 0
1607 412 1611 0
1607 1611 1612 0
99 1607 1612 0
1614 1609 104 0
1613 413 1609 0
1613 1609 1614 0
414 1613 1614 0
1615 1612 413 0
1522 99 1612 0
1522 1612 1615 0
392 1522 1615 0
1616 1613 414 0
1615 413 1613 0
1615 1613 1616 0
392 1615 1616 0
1617 1616 414 0
1525 392 1616 0
1525 1616 1617 0
3 1525 1617 0
1619 1527 7 0
1618 394 1527 0
1618 1527 1619 0
416 1618 1619 0
1621 1532 394 0
1620 101 1532 0
1620 1532 1621 0
415 1620 1621 0
1622 1618 416 0
1621 394 1618 0
1621 1618 1622 0
415 1621 1622 0
1624 1622 416 0
1623 415 1622 0
1623 1622 1624 0
106 1623 1624 0
1626 1546 101 0
1625 399 1546 0
1625 1546 1626 0
418 1625 1626 0
1628 1551 399 0
1627 29 1551 0
1627 1551 1628 0
417 1627 1628 0
1629 1625 418 0
1628 399 1625 0
1628 1625 1629 0
417 1628 1629 0
1631 1629 418 0
1630 417 1629 0
1630 1629 1631 0
105 1630 1631 0
1633 1623 106 0
1632 415 1623 0
1632 1623 1633 0
419 1632 1633 0
1634 1620 415 0
1626 101 1620 0
1626 1620 1634 0
418 1626 1634 0
1635 1632 419 0
1634 415 1632 0
1634 1632 1635 0
418 1634 1635 0
1636 1635 419 0
1631 418 1635 0
1631 1635 1636 0
105 1631 1636 0
1638 1633 106 0
1637 419 1633 0
1637 1633 1638 0
421 1637 1638 0
1640 1636 419 0
1639 105 1636 0
1639 1636 1640 0
420 1639 1640 0
1641 1637 421 0
1640 419 1637 0
1640 1637 1641 0
420 1640 1641 0
1643 1641 421 0
1642 420 1641 0
1642 1641 1643 0
30 1642 1643 0
1645 1597 29 0
1644 411 1597 0
1644 1597 1645 0
423 1644 1645 0
1647 1602 411 0
1646 104 1602 0
1646 1602 1647 0
422 1646 1647 0
1648 1644 423 0
1647 411 1644 0
1647 1644 1648 0
422 1647 1648 0
1650 1648 423 0
1649 422 1648 0
1649 1648 1650 0
107 1649 1650 0
1652 1614 104 0
1651 414 1614 0
1651 1614 1652 0
424 1651 1652 0
1653 1617 414 0
666 3 1617 0
666 1617 1653 0
168 666 1653 0
1654 1651 424 0
1653 414 1651 0
1653 1651 1654 0
168 1653 1654 0
1655 1654 424 0
663 168 1654 0
663 1654 1655 0
43 663 1655 0
1657 1649 107 0
1656 422 1649 0
1656 1649 1657 0
425 1656 1657 0
1658 1646 422 0
1652 104 1646 0
1652 1646 1658 0
424 1652 1658 0
1659 1656 425 0
1658 422 1656 0
1658 1656 1659 0
424 1658 1659 0
1660 1659 425 0
1655 424 1659 0
1655 1659 1660 0
43 1655 1660 0
1662 1657 107 0
1661 425 1657 0
1661 1657 1662 0
426 1661 1662 0
1663 1660 425 0
657 43 1660 0
657 1660 1663 0
165 657 1663 0
1664 1661 426 0
1663 425 1661 0
1663 1661 1664 0
165 1663 1664 0
1665 1664 426 0
654 165 1664 0
654 1664 1665 0
11 654 1665 0
1667 1642 30 0
1666 420 1642 0
1666 1642 1667 0
428 1666 1667 0
1669 1639 420 0
1668 105 1639 0
1668 1639 1669 0
427 1668 1669 0
1670 1666 428 0
1669 420 1666 0
1669 1666 1670 0
427 1669 1670 0
1672 1670 428 0
1671 427 1670 0
1671 1670 1672 0
108 1671 1672 0
1674 1630 105 0
1673 417 1630 0
1673 1630 1674 0
429 1673 1674 0
1675 1627 417 0
1645 29 1627 0
1645 1627 1675 0
423 1645 1675 0
1676 1673 429 0
1675 417 1673 0
1675 1673 1676 0
423 1675 1676 0
1677 1676 429 0
1650 423 1676 0
1650 1676 1677 0
107 1650 1677 0
1679 1671 108 0
1678 427 1671 0
1678 1671 1679 0
430 1678 1679 0
1680 1668 427 0
1674 105 1668 0
1674 1668 1680 0
429 1674 1680 0
1681 1678 430 0
1680 427 1678 0
1680 1678 1681 0
429 1680 1681 0
1682 1681 430 0
1677 429 1681 0
1677 1681 1682 0
107 1677 1682 0
1684 1679 108 0
1683 430 1679 0
1683 1679 1684 0
431 1683 1684 0
1685 1682 430 0
1662 107 1682 0
1662 1682 1685 0
426 1662 1685 0
1686 1683 431 0
1685 430 1683 0
1685 1683 1686 0
426 1685 1686 0
1687 1686 431 0
1665 426 1686 0
1665 1686 1687 0
11 1665 1687 0
1689 1667 30 0
1688 428 1667 0
1688 1667 1689 0
433 1688 1689 0
1691 1672 428 0
1690 108 1672 0
1690 1672 1691 0
432 1690 1691 0
1692 1688 433 0
1691 428 1688 0
1691 1688 1692 0
432 1691 1692 0
1694 1692 433 0
1693 432 1692 0
1693 1692 1694 0
109 1693 1694 0
1696 1684 108 0
1695 431 1684 0
1695 1684 1696 0
434 1695 1696 0
1697 1687 431 0
646 11 1687 0
646 1687 1697 0
162 646 1697 0
1698 1695 434 0
1697 431 1695 0
1697 1695 1698 0
162 1697 1698 0
1699 1698 434 0
643 162 1698 0
643 1698 1699 0
42 643 1699 0
1701 1693 109 0
1700 432 1693 0
1700 1693 1701 0
435 1700 1701 0
1702 1690 432 0
1696 108 1690 0
1696 1690 1702 0
434 1696 1702 0
1703 1700 435 0
1702 432 1700 0
1702 1700 1703 0
434 1702 1703 0
1704 1703 435 0
1699 434 1703 0
1699 1703 1704 0
42 1699 1704 0
1706 1701 109 0
1705 435 1701 0
1705 1701 1706 0
436 1705 1706 0
1707 1704 435 0
638 42 1704 0
638 1704 1707 0
160 638 1707 0
1708 1705 436 0
1707 435 1705 0
1707 1705 1708 0
160 1707 1708 0
1709 1708 436 0
636 160 1708 0
636 1708 1709 0
0 636 1709 0
2616 220 2560 0
1711 860 220 0
1710 58 860 0
1710 860 1711 0
437 1710 1711 0
1711 220 2616 0
1711 2616 2617 0
437 1711 2617 0
2618 437 2617 0
1713 874 58 0
1712 225 874 0
1712 874 1713 0
439 1712 1713 0
1715 879 225 0
1714 5 879 0
1714 879 1715 0
438 1714 1715 0
1716 1712 439 0
1715 225 1712 0
1715 1712 1716 0
438 1715 1716 0
1718 1716 439 0
1717 438 1716 0
1717 1716 1718 0
110 1717 1718 0
1720 2618 2619 0
1719 437 2618 0
1719 2618 1720 0
440 1719 1720 0
1721 1710 437 0
1713 58 1710 0
1713 1710 1721 0
439 1713 1721 0
1722 1719 440 0
1721 437 1719 0
1721 1719 1722 0
439 1721 1722 0
1723 1722 440 0
1718 439 1722 0
1718 1722 1723 0
110 1718 1723 0
2620 1720 2619 0
2621 440 1720 0
2621 1720 2620 0
1725 1723 440 0
1724 110 1723 0
1724 1723 1725 0
441 1724 1725 0
1725 440 2621 0
1725 2621 2622 0
441 1725 2622 0
1726 441 2622 0
1726 2622 2623 0
2624 1726 2623 0
1728 948 5 0
1727 245 948 0
1727 948 1728 0
443 1727 1728 0
1730 953 245 0
1729 64 953 0
1729 953 1730 0
442 1729 1730 0
1731 1727 443 0
1730 245 1727 0
1730 1727 1731 0
442 1730 1731 0
1733 1731 443 0
1732 442 1731 0
1732 1731 1733 0
112 1732 1733 0
1735 967 64 0
1734 250 967 0
1734 967 1735 0
445 1734 1735 0
1737 972 250 0
1736 20 972 0
1736 972 1737 0
444 1736 1737 0
1738 1734 445 0
1737 250 1734 0
1737 1734 1738 0
444 1737 1738 0
1740 1738 445 0
1739 444 1738 0
1739 1738 1740 0
111 1739 1740 0
1742 1732 112 0
1741 442 1732 0
1741 1732 1742 0
446 1741 1742 0
1743 1729 442 0
1735 64 1729 0
1735 1729 1743 0
445 1735 1743 0
1744 1741 446 0
1743 442 1741 0
1743 1741 1744 0
445 1743 1744 0
1745 1744 446 0
1740 445 1744 0
1740 1744 1745 0
111 1740 1745 0
1747 1742 112 0
1746 446 1742 0
1746 1742 1747 0
448 1746 1747 0
1749 1745 446 0
1748 111 1745 0
1748 1745 1749 0
447 1748 1749 0
1750 1746 448 0
1749 446 1746 0
1749 1746 1750 0
447 1749 1750 0
1752 1750 448 0
1751 447 1750 0
1751 1750 1752 0
32 1751 1752 0
1754 1022 20 0
1753 264 1022 0
1753 1022 1754 0
450 1753 1754 0
1756 1027 264 0
1755 69 1027 0
1755 1027 1756 0
449 1755 1756 0
1757 1753 450 0
1756 264 1753 0
1756 1753 1757 0
449 1756 1757 0
1759 1757 450 0
1758 449 1757 0
1758 1757 1759 0
114 1758 1759 0
1761 1041 69 0
1760 269 1041 0
1760 1041 1761 0
452 1760 1761 0
1763 1046 269 0
1762 2 1046 0
1762 1046 1763 0
451 1762 1763 0
1764 1760 452 0
1763 269 1760 0
1763 1760 1764 0
451 1763 1764 0
1766 1764 452 0
1765 451 1764 0
1765 1764 1766 0
113 1765 1766 0
1768 1758 114 0
1767 449 1758 0
1767 1758 1768 0
453 1767 1768 0
1769 1755 449 0
1761 69 1755 0
1761 1755 1769 0
452 1761 1769 0
1770 1767 453 0
1769 449 1767 0
1769 1767 1770 0
452 1769 1770 0
1771 1770 453 0
1766 452 1770 0
1766 1770 1771 0
113 1766 1771 0
1773 1768 114 0
1772 453 1768 0
1772 1768 1773 0
455 1772 1773 0
1775 1771 453 0
1774 113 1771 0
1774 1771 1775 0
454 1774 1775 0
1776 1772 455 0
1775 453 1772 0
1775 1772 1776 0
454 1775 1776 0
1778 1776 455 0
1777 454 1776 0
1777 1776 1778 0
31 1777 1778 0
1780 1751 32 0
1779 447 1751 0
1779 1751 1780 0
457 1779 1780 0
1782 1748 447 0
1781 111 1748 0
1781 1748 1782 0
456 1781 1782 0
1783 1779 457 0
1782 447 1779 0
1782 1779 1783 0
456 1782 1783 0
1785 1783 457 0
1784 456 1783 0
1784 1783 1785 0
115 1784 1785 0
1787 1739 111 0
1786 444 1739 0
1786 1739 1787 0
458 1786 1787 0
1788 1736 444 0
1754 20 1736 0
1754 1736 1788 0
450 1754 1788 0
1789 1786 458 0
1788 444 1786 0
1788 1786 1789 0
450 1788 1789 0
1790 1789 458 0
1759 450 1789 0
1759 1789 1790 0
114 1759 1790 0
1792 1784 115 0
1791 456 1784 0
1791 1784 1792 0
459 1791 1792 0
1793 1781 456 0
1787 111 1781 0
1787 1781 1793 0
458 1787 1793 0
1794 1791 459 0
1793 456 1791 0
1793 1791 1794 0
458 1793 1794 0
1795 1794 459 0
1790 458 1794 0
1790 1794 1795 0
114 1790 1795 0
1797 1792 115 0
1796 459 1792 0
1796 1792 1797 0
460 1796 1797 0
1798 1795 459 0
1773 114 1795 0
1773 1795 1798 0
455 1773 1798 0
1799 1796 460 0
1798 459 1796 0
1798 1796 1799 0
455 1798 1799 0
1800 1799 460 0
1778 455 1799 0
1778 1799 1800 0
31 1778 1800 0
1802 1780 32 0
1801 457 1780 0
1801 1780 1802 0
2625 1801 1802 0
1804 1785 457 0
1803 115 1785 0
1803 1785 1804 0
2626 1803 1804 0
2627 1801 2625 0
1804 457 1801 0
1804 1801 2627 0
2626 1804 2627 0
1805 1797 115 0
2628 460 1797 0
2628 1797 1805 0
2629 2628 1805 0
1807 1800 460 0
1806 31 1800 0
1806 1800 1807 0
2630 1806 1807 0
1807 460 2628 0
1807 2628 2631 0
2630 1807 2631 0
2632 1803 2626 0
1805 115 1803 0
1805 1803 2632 0
2629 1805 2632 0
2633 1726 2624 0
1808 441 1726 0
1808 1726 2633 0
462 1808 2633 0
1810 1724 441 0
1809 110 1724 0
1809 1724 1810 0
461 1809 1810 0
1811 1808 462 0
1810 441 1808 0
1810 1808 1811 0
461 1810 1811 0
1813 1811 462 0
1812 461 1811 0
1812 1811 1813 0
116 1812 1813 0
1815 1717 110 0
1814 438 1717 0
1814 1717 1815 0
463 1814 1815 0
1816 1714 438 0
1728 5 1714 0
1728 1714 1816 0
443 1728 1816 0
1817 1814 463 0
1816 438 1814 0
1816 1814 1817 0
443 1816 1817 0
1818 1817 463 0
1733 443 1817 0
1733 1817 1818 0
112 1733 1818 0
1820 1812 116 0
1819 461 1812 0
1819 1812 1820 0
464 1819 1820 0
1821 1809 461 0
1815 110 1809 0
1815 1809 1821 0
463 1815 1821 0
1822 1819 464 0
1821 461 1819 0
1821 1819 1822 0
463 1821 1822 0
1823 1822 464 0
1818 463 1822 0
1818 1822 1823 0
112 1818 1823 0
1825 1820 116 0
1824 464 1820 0
1824 1820 1825 0
465 1824 1825 0
1826 1823 464 0
1747 112 1823 0
1747 1823 1826 0
448 1747 1826 0
1827 1824 465 0
1826 464 1824 0
1826 1824 1827 0
448 1826 1827 0
1828 1827 465 0
1752 448 1827 0
1752 1827 1828 0
32 1752 1828 0
466 2634 2635 0
462 2633 2636 0
1829 2634 466 0
2636 2634 1829 0
462 2636 1829 0
1830 1829 466 0
1813 462 1829 0
1813 1829 1830 0
116 1813 1830 0
467 2637 2638 0
466 2635 2639 0
1831 2637 467 0
2639 2637 1831 0
466 2639 1831 0
1832 1831 467 0
1830 466 1831 0
1830 1831 1832 0
116 1830 1832 0
1833 467 2638 0
1833 2638 2640 0
468 1833 2640 0
1834 1832 467 0
1825 116 1832 0
1825 1832 1834 0
465 1825 1834 0
1835 1833 468 0
1834 467 1833 0
1834 1833 1835 0
465 1834 1835 0
1836 1835 468 0
1828 465 1835 0
1828 1835 1836 0
32 1828 1836 0
2641 468 2640 0
1837 1836 468 0
1802 32 1836 0
1802 1836 1837 0
2625 1802 1837 0
1837 468 2641 0
1837 2641 2642 0
2625 1837 2642 0
1839 1335 2 0
1838 346 1335 0
1838 1335 1839 0
470 1838 1839 0
1841 1340 346 0
1840 89 1340 0
1840 1340 1841 0
469 1840 1841 0
1842 1838 470 0
1841 346 1838 0
1841 1838 1842 0
469 1841 1842 0
1844 1842 470 0
1843 469 1842 0
1843 1842 1844 0
118 1843 1844 0
1846 1354 89 0
1845 351 1354 0
1845 1354 1846 0
472 1845 1846 0
1848 1359 351 0
1847 27 1359 0
1847 1359 1848 0
471 1847 1848 0
1849 1845 472 0
1848 351 1845 0
1848 1845 1849 0
471 1848 1849 0
1851 1849 472 0
1850 471 1849 0
1850 1849 1851 0
117 1850 1851 0
1853 1843 118 0
1852 469 1843 0
1852 1843 1853 0
473 1852 1853 0
1854 1840 469 0
1846 89 1840 0
1846 1840 1854 0
472 1846 1854 0
1855 1852 473 0
1854 469 1852 0
1854 1852 1855 0
472 1854 1855 0
1856 1855 473 0
1851 472 1855 0
1851 1855 1856 0
117 1851 1856 0
1858 1853 118 0
1857 473 1853 0
1857 1853 1858 0
475 1857 1858 0
1860 1856 473 0
1859 117 1856 0
1859 1856 1860 0
474 1859 1860 0
1861 1857 475 0
1860 473 1857 0
1860 1857 1861 0
474 1860 1861 0
1863 1861 475 0
1862 474 1861 0
1862 1861 1863 0
34 1862 1863 0
1865 1409 27 0
1864 365 1409 0
1864 1409 1865 0
477 1864 1865 0
1867 1414 365 0
1866 94 1414 0
1866 1414 1867 0
476 1866 1867 0
1868 1864 477 0
1867 365 1864 0
1867 1864 1868 0
476 1867 1868 0
1870 1868 477 0
1869 476 1868 0
1869 1868 1870 0
120 1869 1870 0
1872 1428 94 0
1871 370 1428 0
1871 1428 1872 0
479 1871 1872 0
1874 1433 370 0
1873 7 1433 0
1873 1433 1874 0
478 1873 1874 0
1875 1871 479 0
1874 370 1871 0
1874 1871 1875 0
478 1874 1875 0
1877 1875 479 0
1876 478 1875 0
1876 1875 1877 0
119 1876 1877 0
1879 1869 120 0
1878 476 1869 0
1878 1869 1879 0
480 1878 1879 0
1880 1866 476 0
1872 94 1866 0
1872 1866 1880 0
479 1872 1880 0
1881 1878 480 0
1880 476 1878 0
1880 1878 1881 0
479 1880 1881 0
