#!ascii - generated by CreateLabelFiles project 
4394 8325
-6.54813 104.698 -13.4784 0
-6.60815 105.226 -13.3464 0
-6.48101 104.709 -12.8429 0
-6.35543 103.755 -12.4639 0
-6.53767 104.15 -12.1367 0
-6.48901 103.582 -14.3202 0
-6.50501 104.154 -13.8852 0
-6.92738 102.487 -14.5069 0
-6.57115 103.043 -14.5497 0
-6.37954 102.716 -14.1419 0
-6.25966 101.857 -13.9257 0
-6.19883 102.34 -13.7118 0
-6.28342 103.305 -12.8669 0
-6.32243 102.814 -12.0783 0
-6.35823 103.735 -13.5102 0
-6.2307 102.814 -13.3073 0
-6.14716 101.928 -12.9726 0
-5.97508 102.002 -11.753 0
-6.08768 102.388 -11.3052 0
-6.00919 101.006 -12.6985 0
-6.04056 101.476 -12.2066 0
-5.6772 101.131 -11.5032 0
-4.93392 100.48 -11.4522 0
-4.80361 100.858 -10.9112 0
-4.7316 102.993 -9.35071 0
-3.63739 103.322 -9.5166 0
-6.34246 103.394 -9.71964 0
-5.65954 102.991 -9.33185 0
-4.7138 102.539 -9.29082 0
-4.68124 102.105 -9.24144 0
-3.61109 102.374 -9.43815 0
-6.85463 104.917 -11.4897 0
-6.76453 104.173 -10.5212 0
-6.96159 105.572 -12.2751 0
-6.74085 104.533 -11.8487 0
-6.56251 103.549 -11.306 0
-5.51137 102.318 -9.46091 0
-4.62868 101.821 -9.50012 0
-6.24915 103.091 -9.84805 0
-6.16045 102.809 -10.0687 0
-6.081 102.582 -10.6021 0
-4.63232 101.525 -9.86564 0
-3.55829 101.581 -9.7617 0
-5.5345 101.765 -10.2128 0
-4.70367 101.165 -10.3119 0
-3.76872 100.668 -10.3881 0
-2.49859 103.259 -9.63797 0
-2.40564 103.924 -9.66162 0
-2.56603 102.207 -9.72613 0
-2.53926 102.721 -9.66359 0
-1.81215 103.035 -10.096 0
-1.28247 102.71 -10.5699 0
-1.05996 103.444 -10.6682 0
-2.60555 101.26 -9.97085 0
-2.56622 101.724 -9.79397 0
-2.94654 100.207 -10.4777 0
-2.75256 100.768 -10.2273 0
-2.08306 100.869 -10.2863 0
-1.59377 100.467 -10.5742 0
-1.50631 100.998 -10.4889 0
-1.4152 102.104 -10.5591 0
-0.869666 102.334 -10.998 0
-1.97287 101.933 -10.1926 0
-1.46393 101.548 -10.5245 0
-0.997711 101.233 -11.022 0
-0.4142 101.974 -11.5489 0
-0.336715 102.565 -11.4204 0
-0.584604 100.857 -11.5966 0
-0.482485 101.422 -11.5902 0
0.0190686 101.592 -12.0567 0
0.409842 101.137 -12.3854 0
0.502661 101.749 -12.4009 0
-7.50524 101.132 -14.5219 0
-7.17803 101.859 -14.6263 0
-7.76341 100.38 -13.8515 0
-7.65809 100.686 -14.2752 0
-7.03448 100.436 -14.4472 0
-6.55431 99.6831 -14.3486 0
-6.43992 100.244 -14.4907 0
-7.80669 100.15 -12.64 0
-7.7784 100.27 -13.2073 0
-8.16654 99.6527 -11.9287 0
-7.95363 99.9135 -12.2643 0
-7.36508 99.6472 -12.3324 0
-6.96772 99.0981 -12.0437 0
-6.85446 99.1673 -12.5398 0
-6.72154 99.3046 -13.8564 0
-6.11534 98.9092 -14.1182 0
-7.22849 99.8469 -13.4716 0
-6.77844 99.2115 -13.1445 0
-6.44949 98.3774 -12.9675 0
-5.6367 97.9838 -13.8303 0
-5.5161 98.5285 -14.0876 0
-6.06168 97.5768 -12.7991 0
-5.91173 97.6335 -13.3584 0
-5.17161 97.0784 -13.5267 0
-4.9549 96.0025 -13.436 0
-4.6955 96.478 -13.4765 0
-8.79934 98.9783 -11.4238 0
-8.50717 99.2926 -11.6878 0
-9.18343 98.5699 -10.827 0
-8.99252 98.7703 -11.1205 0
-8.50027 98.5214 -11.284 0
-8.23498 98.0162 -11.1419 0
-7.95312 98.2487 -11.3365 0
-9.33758 98.292 -10.5832 0
-9.1567 97.8762 -10.2042 0
-8.84 97.5924 -10.378 0
-8.46631 97.8671 -10.9064 0
-8.01218 97.5396 -11.0601 0
-8.89312 98.1939 -10.7374 0
-8.69091 97.7323 -10.6607 0
-8.51142 97.2897 -10.6115 0
-7.80578 97.108 -10.955 0
-7.4963 97.2315 -11.1483 0
-8.08183 96.9919 -10.7349 0
-7.61221 96.6805 -10.843 0
-7.26244 96.2246 -11.0388 0
-5.28915 95.9625 -13.0662 0
-4.81735 94.9771 -13.3467 0
-6.2538 97.6471 -12.3167 0
-5.68821 96.9146 -12.6589 0
-5.48542 96.17 -12.6023 0
-5.77672 96.3618 -12.1408 0
-5.48877 95.3949 -12.5943 0
-7.17319 98.9457 -11.6424 0
-6.69237 98.3766 -11.9418 0
-7.81632 99.1761 -11.6415 0
-7.52274 98.6405 -11.4164 0
-7.33568 97.9888 -11.3807 0
-6.32327 97.0462 -11.8144 0
-6.20015 96.429 -11.7662 0
-6.46051 97.6926 -11.8484 0
-6.80793 97.5641 -11.5637 0
-7.16446 97.3885 -11.3477 0
-6.61441 96.3792 -11.4957 0
-6.22028 95.7792 -11.7542 0
-7.03446 96.8757 -11.2896 0
-6.97299 96.3205 -11.2729 0
-6.90416 95.7024 -11.2304 0
-4.76018 94.2016 -13.3762 0
-4.21994 94.3682 -13.6051 0
-5.51275 94.6953 -12.5153 0
-5.20671 94.3746 -13.0059 0
-4.71557 93.5514 -13.304 0
-4.7535 93.6593 -12.7934 0
-4.26964 93.5216 -13.297 0
-6.29503 95.0517 -11.7592 0
-5.86612 94.916 -12.092 0
-6.63145 95.0409 -11.4567 0
-6.32771 94.4018 -11.5765 0
-5.90482 93.9004 -11.5274 0
-5.21374 93.7388 -12.3272 0
-4.84574 93.8669 -12.2585 0
-5.49396 94.2172 -12.2378 0
-5.52013 93.7705 -11.9307 0
-5.62628 93.828 -11.4293 0
-4.98717 93.9377 -11.7619 0
-4.50928 93.9805 -12.2219 0
-5.38923 93.9132 -11.3371 0
-5.12404 94.0652 -11.2288 0
-4.7694 94.4322 -11.0314 0
0.296147 100.544 -12.3703 0
0.81328 100.657 -12.7198 0
-0.709276 100.263 -11.6236 0
-0.208147 100.415 -12.069 0
0.166485 99.9653 -12.411 0
-0.0031156 99.3941 -12.5256 0
0.500131 99.5547 -12.8803 0
-1.79299 99.9908 -10.9263 0
-1.22255 100.103 -11.1656 0
-3.13095 99.7183 -10.8793 0
-2.44599 99.839 -10.8772 0
-1.99693 99.4681 -11.2866 0
-2.25436 98.8355 -11.6519 0
-1.63198 99.1166 -11.8031 0
-0.518794 99.2934 -12.235 0
-0.223275 98.8838 -12.6764 0
-0.853035 99.6842 -11.7849 0
-1.06159 99.233 -11.9977 0
-1.30486 98.7339 -12.1879 0
-0.512353 98.5457 -12.5541 0
0.0233697 98.6545 -12.739 0
-1.59246 98.0708 -12.3935 0
-1.04678 98.4271 -12.3678 0
-0.845306 98.1942 -12.2628 0
-1.16792 97.3948 -12.3635 0
-0.659988 97.9553 -12.1749 0
-4.99536 99.9872 -11.9808 0
-4.12148 99.8659 -11.4385 0
-5.75478 100.64 -13.2383 0
-5.66851 100.151 -12.4979 0
-4.87916 99.5515 -12.5434 0
-4.69675 99.0394 -12.9858 0
-4.27704 98.7296 -12.4943 0
-6.22755 101.37 -14.2562 0
-6.04291 100.992 -13.8021 0
-6.68691 101.617 -14.4202 0
-6.3774 100.81 -14.4125 0
-5.97477 100.004 -14.3463 0
-5.08353 99.3695 -13.496 0
-4.7132 98.3186 -13.2433 0
-5.59426 100.21 -13.6675 0
-5.52316 99.6787 -13.9651 0
-5.49004 99.0805 -14.1127 0
-4.68181 97.6706 -13.4211 0
-4.30167 97.235 -13.1249 0
-5.01578 98.0989 -13.8817 0
-4.63127 97.0092 -13.5388 0
-4.25495 95.9441 -13.3512 0
-1.71476 96.756 -12.5492 0
-1.57869 96.7524 -12.3059 0
-2.24316 97.6538 -12.3325 0
-1.94569 97.2199 -12.4599 0
-2.21839 96.2262 -12.7122 0
-2.75939 95.6714 -12.8554 0
-2.51803 95.465 -12.8195 0
-2.8668 98.7267 -11.7781 0
-2.59052 98.0252 -12.0171 0
-3.31779 99.2656 -11.4388 0
-3.58371 98.5705 -11.9464 0
-3.91655 97.6563 -12.3398 0
-3.08781 96.2523 -12.6679 0
-3.09314 95.5348 -13.1228 0
-2.89786 97.1454 -12.3567 0
-3.50611 96.8559 -12.4566 0
-3.93273 96.9013 -12.7483 0
-3.40698 95.4282 -13.3634 0
-3.09135 95.0194 -13.4844 0
-3.80777 96.2054 -13.2356 0
-3.81794 95.5732 -13.3877 0
-3.9643 94.927 -13.5784 0
-1.93614 95.8472 -12.3333 0
-1.4422 96.7393 -12.0574 0
-2.47532 94.8174 -13.319 0
-2.25409 95.2349 -12.7903 0
-2.45193 95.5314 -12.4122 0
-2.87059 95.3478 -12.5256 0
-2.53943 96.0767 -12.0584 0
-3.24711 94.2762 -13.6894 0
-2.79715 94.5222 -13.6115 0
-3.72509 94.011 -13.778 0
-3.79271 93.8275 -13.5184 0
-3.88746 93.6489 -13.2666 0
-3.20404 94.6388 -12.8347 0
-3.4019 95.0991 -12.2678 0
-2.94534 94.4595 -13.2938 0
-3.53769 93.9632 -13.1391 0
-4.03706 93.9519 -12.6852 0
-3.92376 94.9356 -11.9443 0
-3.59165 95.5132 -11.6891 0
-4.21421 94.4312 -12.0872 0
-4.32861 94.653 -11.4626 0
-4.42445 94.8208 -10.8215 0
1.24687 100.373 -12.7251 0
1.33762 100.688 -12.6661 0
0.857415 99.3271 -12.8501 0
1.06894 99.8843 -12.7734 0
1.68512 100.206 -12.6795 0
2.16541 100.158 -12.3073 0
2.51531 100.39 -12.3598 0
0.228523 98.6953 -12.3005 0
0.550904 98.9629 -12.634 0
-0.546739 97.9715 -11.7685 0
-0.153897 98.3882 -11.9295 0
0.414339 98.7511 -11.7783 0
0.561832 98.7862 -11.1538 0
1.006 99.1999 -11.5127 0
1.79782 99.8753 -12.0882 0
2.59719 100.216 -11.6209 0
1.13438 99.422 -12.4145 0
1.44935 99.4967 -11.8563 0
1.6605 99.6854 -11.0385 0
2.95552 100.217 -10.9976 0
3.56915 100.397 -11.1659 0
1.82698 99.8826 -10.2383 0
2.36023 100.014 -10.6624 0
3.09817 99.9437 -10.4106 0
3.19225 99.5925 -9.86338 0
4.02721 99.9892 -10.0358 0
-1.57254 97.2259 -11.634 0
-0.952201 97.4864 -11.7363 0
-2.69308 96.4637 -11.4918 0
-2.16705 96.8742 -11.5376 0
-1.66153 97.5059 -11.0818 0
-1.70675 97.708 -10.4614 0
-1.12573 97.9264 -10.5587 0
-3.77099 95.8035 -11.0369 0
-3.23795 96.1084 -11.3205 0
-4.17354 95.4161 -10.5848 0
-3.91748 96.0447 -10.3288 0
-3.46601 96.6077 -9.92299 0
-2.30812 97.3778 -10.3493 0
-1.74326 97.9049 -9.80903 0
-2.83668 96.7905 -10.8769 0
-2.89103 96.9599 -10.2325 0
-2.91838 97.1082 -9.5148 0
-1.5697 97.7163 -9.11942 0
-0.921767 97.7579 -9.21296 0
-2.23673 97.5003 -8.9697 0
-1.35749 97.4765 -8.44827 0
-0.483306 97.1505 -8.02286 0
2.58953 99.3588 -9.5056 0
3.28817 99.1716 -9.3769 0
1.31468 99.4602 -9.87105 0
1.94992 99.526 -9.65509 0
2.05521 99.0731 -9.11362 0
1.59401 98.5378 -8.69613 0
2.16776 98.5601 -8.60019 0
0.081385 98.3731 -10.8318 0
0.683062 98.8823 -10.3271 0
-0.435923 97.9281 -11.2958 0
-0.525477 98.1628 -10.6867 0
-0.471213 98.2294 -9.97792 0
1.00649 98.5035 -8.8095 0
1.20522 98.1483 -8.31474 0
0.83423 98.8159 -9.52536 0
0.302622 98.3626 -9.29685 0
-0.298515 97.9744 -9.27871 0
0.669959 97.7173 -8.1712 0
1.41551 97.8087 -7.8323 0
-0.0912783 97.6242 -8.58827 0
0.13258 97.1667 -8.17992 0
0.329748 96.6705 -7.94036 0
3.46658 98.673 -8.90392 0
4.14797 99.1479 -9.01565 0
2.46438 97.84 -8.22703 0
2.88536 98.3954 -8.51709 0
3.6478 98.181 -8.43867 0
3.89651 97.5365 -8.19331 0
4.39375 97.9905 -8.33254 0
1.59952 97.2105 -7.65294 0
2.05846 97.5707 -7.8314 0
1.04938 96.767 -7.63751 0
1.79393 96.3976 -7.76555 0
2.53624 95.9768 -7.85511 0
3.49967 96.8749 -7.90692 0
4.09532 97.0498 -8.19353 0
2.73277 97.16 -7.88508 0
3.02119 96.4201 -7.74282 0
3.2729 95.6404 -8.06438 0
4.29409 96.4854 -8.31612 0
3.90312 95.5869 -8.4337 0
-0.177632 104.025 -2.9336 0
0.0158585 106.044 -4.13164 0
-0.264894 105.064 -3.61462 0
-0.379196 104.119 -4.20196 0
0.151038 104.294 -5.3545 0
-0.166344 103.175 -4.80622 0
1.1564 107.401 -4.87926 0
0.604006 106.752 -4.50626 0
0.846589 107.884 -6.02207 0
1.14503 107.734 -5.44552 0
1.26796 107.28 -5.86452 0
1.29625 107.513 -6.91545 0
1.26988 106.845 -6.48992 0
0.483202 105.388 -5.89653 0
0.858197 104.705 -6.4051 0
0.500181 106.024 -5.2092 0
0.84342 106.131 -6.21789 0
1.74104 106.516 -6.87158 0
1.66921 105.115 -7.01886 0
1.26712 104 -6.87323 0
1.61265 107.446 -8.18342 0
2.01963 106.195 -7.2854 0
2.39811 105.525 -7.32813 0
2.30145 105.66 -7.9223 0
2.83955 104.923 -7.36888 0
-2.00978 104.789 -5.95955 0
-0.650011 106.12 -6.02942 0
-4.12995 108.692 -7.58071 0
-3.38597 106.114 -6.84638 0
-2.10062 105.465 -7.54807 0
-2.34432 106.06 -8.39415 0
-1.49165 106.016 -8.17354 0
-6.96114 110.662 -7.56521 0
-5.66377 109.837 -7.56469 0
-7.50041 111.528 -7.94636 0
-7.18323 109.861 -8.00959 0
-6.82655 108.377 -8.12856 0
-4.22354 107.09 -8.3168 0
-2.97589 106.011 -8.96884 0
-5.10736 108.369 -7.77479 0
-5.9455 107.735 -8.03513 0
-6.46894 106.971 -8.63349 0
-3.8937 105.438 -9.35976 0
-2.53225 105.923 -9.68698 0
-5.08636 105.631 -9.05631 0
-4.23192 104.716 -9.39067 0
-3.29567 104.609 -9.57819 0
1.69595 106.608 -8.82397 0
1.86451 105.534 -8.51431 0
1.33227 108.36 -9.13501 0
1.43273 107.573 -9.06206 0
1.10991 107.33 -10.0167 0
0.306111 106.856 -10.6525 0
0.496467 106.275 -10.6506 0
0.870282 108.255 -7.58396 0
1.10071 108.474 -8.42896 0
0.258948 107.212 -6.84546 0
-0.386273 107.192 -7.89612 0
-0.723675 106.744 -9.11386 0
0.344568 107.135 -10.5765 0
-0.393777 106.396 -11.1354 0
1.0778 107.962 -9.83765 0
0.183764 107.407 -10.1478 0
-1.22268 106.623 -9.98126 0
-1.23027 105.882 -10.5937 0
-0.594337 105.631 -11.1204 0
-1.75022 105.853 -9.98628 0
-2.05289 105.273 -9.80113 0
-2.26831 104.629 -9.69747 0
1.0863 105.152 -9.28909 0
2.48587 105.101 -8.18529 0
0.0167044 105.213 -11.1588 0
0.549946 105.396 -10.4799 0
0.670727 104.436 -10.2458 0
0.638125 103.934 -11.1512 0
1.1222 103.763 -10.1521 0
-0.705841 104.907 -10.9356 0
-0.305196 105.065 -11.0954 0
-1.50083 104.479 -10.263 0
-0.808543 104.202 -10.8136 0
-0.462284 103.717 -11.1326 0
0.24974 103.957 -11.3973 0
0.575788 103.277 -11.4 0
-0.034634 104.502 -11.1672 0
-0.0598027 103.874 -11.3622 0
-0.1942 103.21 -11.3905 0
0.627374 102.917 -12.0687 0
1.0328 102.88 -11.8797 0
0.165354 102.778 -11.8158 0
0.580597 102.356 -12.3161 0
1.01082 101.916 -12.7787 0
5.47926 94.5889 -3.61899 0
5.79403 95.7193 -4.3695 0
6.16633 96.9759 -5.20728 0
6.51688 96.3286 -5.08437 0
6.92678 98.3586 -5.86579 0
7.52342 99.5237 -6.44638 0
7.57759 98.8265 -6.49931 0
0.220304 102.386 -5.37286 0
0.940027 102.872 -6.49376 0
2.41222 102.801 -7.03342 0
3.06219 102.196 -7.11702 0
1.83027 103.416 -6.99147 0
2.82341 103.982 -7.08552 0
3.40136 104.372 -7.20524 0
6.97817 100.153 -6.55509 0
7.26227 100.345 -7.07914 0
6.50979 100.844 -6.73379 0
5.94541 101.504 -6.9072 0
6.09574 101.582 -7.33119 0
5.46311 102.258 -7.22718 0
4.93195 103.041 -7.42234 0
4.82249 103.02 -7.68949 0
4.25012 102.724 -7.26515 0
4.16631 103.734 -7.31503 0
3.42784 104.616 -7.4224 0
7.00081 101.154 -7.72943 0
7.65559 100.616 -7.6567 0
5.44989 102.266 -7.90764 0
6.30643 101.709 -7.81545 0
6.14604 101.63 -8.52766 0
4.84976 101.957 -9.55901 0
6.12368 101.64 -9.3453 0
3.98667 103.928 -7.83155 0
4.69562 102.999 -7.9589 0
3.20669 104.662 -7.79223 0
2.44498 103.995 -8.94072 0
1.87611 103.275 -10.1998 0
3.78177 102.381 -9.80534 0
3.58012 102.039 -10.6576 0
4.23852 102.678 -8.84863 0
2.75801 102.814 -10.0617 0
1.65473 102.769 -11.1501 0
2.28092 101.859 -11.7022 0
3.56516 101.747 -11.4098 0
1.62896 102.413 -12.0358 0
1.6269 102.015 -12.7378 0
1.47964 101.336 -12.758 0
7.25898 96.9865 -5.84868 0
6.94111 95.735 -4.91702 0
7.98149 99.1482 -7.07277 0
7.6347 98.1446 -6.56189 0
7.78615 97.4815 -6.59714 0
8.36812 97.9685 -7.19261 0
7.76645 100.645 -8.32038 0
8.25872 100.079 -7.61326 0
6.04592 101.487 -10.1458 0
7.22328 101.235 -9.18956 0
8.00973 100.924 -9.27001 0
7.40484 100.714 -9.76345 0
8.70124 100.69 -9.43161 0
3.22941 101.204 -11.9461 0
4.67183 101.517 -11.0854 0
2.01349 100.85 -12.5514 0
2.81726 100.731 -12.2448 0
3.66833 100.609 -11.8936 0
6.01484 100.74 -10.1401 0
6.44813 100.464 -9.87826 0
5.39384 101.143 -10.5796 0
4.83227 100.749 -11.0151 0
4.22333 100.557 -11.2997 0
5.66868 100.399 -10.0688 0
6.7616 100.217 -9.61628 0
4.63584 100.45 -10.7439 0
4.95751 100.306 -10.2399 0
4.97294 99.9453 -9.67039 0
8.71471 97.6663 -7.83817 0
7.75482 98.1929 -8.18717 0
8.70118 98.991 -7.74478 0
8.89056 98.4659 -7.86354 0
8.52257 99.525 -7.65508 0
8.84451 99.9538 -8.53443 0
9.08205 100.37 -9.47532 0
8.09948 98.8544 -8.54114 0
7.28887 98.8324 -8.55112 0
8.71482 98.7874 -8.31701 0
8.58881 99.6307 -8.9795 0
8.01676 100.162 -9.39738 0
6.74646 99.4101 -8.87286 0
6.43195 98.7444 -8.48577 0
7.02897 99.9647 -9.37094 0
5.9391 99.7752 -9.23829 0
4.9655 99.5625 -9.12743 0
5.70365 98.6578 -8.49389 0
6.32324 98.1254 -8.24864 0
5.03669 99.0638 -8.66069 0
5.05073 98.4358 -8.46783 0
5.08535 97.7841 -8.27585 0
3.71076 94.257 -8.99294 0
4.14073 94.8312 -8.93791 0
3.2712 93.8099 -9.21415 0
3.27905 94.2563 -10.6047 0
3.04296 93.9288 -11.3078 0
2.59242 93.5495 -10.7316 0
3.05659 93.2268 -11.8485 0
3.17635 92.6512 -12.2118 0
3.38272 92.0604 -12.4867 0
3.86343 91.2355 -12.4413 0
4.31012 90.4245 -12.3014 0
5.40764 89.0463 -12.6508 0
5.65144 88.0316 -12.4173 0
5.80169 87.0926 -12.1912 0
-8.21446 96.427 -10.4741 0
-8.57564 96.7446 -10.3795 0
-8.43049 96.3141 -10.3035 0
-7.94492 95.2624 -10.354 0
-8.29094 95.8171 -10.24 0
-8.89192 97.0574 -10.2059 0
-9.01102 97.4641 -10.1792 0
-7.44632 92.8591 -8.08657 0
-7.45382 92.6604 -9.52078 0
-7.45219 92.7253 -8.83986 0
-8.16205 95.1334 -10.1764 0
-7.74045 92.9536 -9.72043 0
-7.7628 93.5656 -10.0781 0
-8.05184 94.3767 -10.0534 0
-7.28556 92.9426 -7.40994 0
-7.35217 92.6417 -7.12111 0
-7.06593 92.5698 -6.5165 0
-7.083 92.0426 -6.26653 0
-6.45978 91.6578 -5.04611 0
-6.73327 91.7812 -5.75167 0
-5.88856 90.3461 -4.73966 0
-6.54322 91.1664 -4.68029 0
-6.07819 89.6621 -4.99399 0
-6.28554 88.9841 -5.38636 0
-5.56527 88.1917 -6.15921 0
-5.52133 87.576 -6.42929 0
6.57586 83.0688 -11.871 0
6.87752 81.5596 -11.4868 0
6.31832 85.3989 -12.3615 0
6.71224 83.84 -12.317 0
-4.40826 77.66 -6.02997 0
-4.62606 77.2555 -6.33887 0
-3.03124 78.0743 -6.3447 0
-2.74278 78.4975 -6.11413 0
-1.44083 78.6745 -6.48384 0
-1.0965 78.8668 -6.18235 0
0.162276 78.5411 -6.43765 0
1.36753 78.2395 -6.76103 0
3.94095 77.3594 -7.85139 0
3.25147 77.6371 -7.47938 0
2.5339 77.9842 -7.07394 0
4.36618 77.5578 -7.79058 0
2.95363 78.3188 -7.13784 0
4.80928 77.8134 -7.78778 0
4.11817 78.2206 -7.50913 0
5.34597 77.7328 -8.12922 0
6.00783 78.5073 -8.45397 0
6.58921 79.2903 -8.8583 0
6.81677 79.9526 -10.0544 0
6.73993 80.8826 -11.0718 0
-4.88736 77.1828 -6.6533 0
-5.08821 77.1775 -7.02524 0
-5.16682 77.1155 -7.35217 0
-5.21903 77.0517 -7.6257 0
-5.14937 76.974 -7.88174 0
-5.03822 76.852 -8.1362 0
-3.93175 77.5336 -9.15877 0
-4.04556 77.6338 -9.5593 0
-4.18226 77.7656 -9.95991 0
-4.46776 77.9018 -10.3267 0
-4.81784 78.0291 -10.6793 0
-4.20784 78.5463 -11.4055 0
-3.91593 78.7576 -12.442 0
-4.31583 78.5947 -12.7026 0
-4.70381 78.1729 -12.8737 0
-4.57616 78.6497 -11.7875 0
-5.25934 76.5604 -13.5253 0
-5.83798 76.0565 -13.5325 0
-5.22649 77.4176 -12.9213 0
-4.7042 77.1458 -13.4985 0
-5.32225 75.7828 -14.0319 0
-5.94081 75.2627 -13.9168 0
-6.57306 74.7171 -13.7768 0
-6.19169 74.4955 -14.3241 0
-8.67635 72.3375 -13.3358 0
-8.43725 72.5256 -13.973 0
-8.13728 72.9181 -13.6838 0
-7.63142 73.576 -14.0012 0
-6.82883 73.9781 -14.1823 0
-8.99456 70.7476 -13.4522 0
-9.00742 69.9529 -13.5426 0
-8.72824 71.683 -14.0896 0
-8.85459 71.614 -13.5708 0
-7.76387 65.6015 -15.674 0
-7.55074 64.8158 -16.0394 0
-7.95034 66.1575 -15.1565 0
-8.09366 66.7484 -14.7853 0
-8.31066 67.2721 -14.3062 0
-8.35118 67.8254 -14.0164 0
-8.29776 68.4824 -13.962 0
-8.53917 69.2213 -13.8682 0
-5.3867 86.9134 -6.87606 0
-5.24027 86.5189 -7.46299 0
-4.35144 86.1104 -9.07863 0
-5.03004 86.1351 -8.02904 0
-4.6438 86.5854 -11.0273 0
-4.84569 85.9553 -8.55289 0
-4.60863 86.4793 -10.3691 0
-4.6158 86.1597 -9.76039 0
-4.22962 86.3201 -10.0269 0
-4.69014 85.9071 -9.0943 0
-4.64751 84.8647 -12.3481 0
-4.68143 85.4318 -11.9517 0
-5.0527 85.8596 -11.599 0
-5.05725 86.0403 -10.907 0
-4.89251 84.1475 -12.7451 0
-6.59719 82.1421 -13.2866 0
-5.55599 83.425 -12.575 0
-6.06745 82.8221 -12.9599 0
-14.1685 78.9687 -14.9191 0
-13.9727 79.4969 -15.0087 0
-13.7971 79.9296 -15.0499 0
-13.5601 80.1334 -14.9939 0
-13.0676 80.1519 -15.4198 0
-12.7369 79.9838 -15.1885 0
-12.2433 79.67 -14.8498 0
-11.689 79.3829 -14.4923 0
-10.8857 79.6153 -14.1587 0
-10.0245 79.7142 -13.9177 0
-9.30357 79.9378 -13.7197 0
-8.67094 80.3118 -13.4995 0
-7.79992 80.9459 -13.7796 0
-7.10627 81.4235 -13.5498 0
-14.9577 78.0837 -14.3524 0
-14.68 78.5563 -14.237 0
-15.587 78.1122 -14.182 0
-15.983 77.6215 -14.418 0
-18.9874 79.4994 -17.1166 0
-18.625 78.8039 -17.114 0
-18.7701 79.7012 -17.6491 0
-18.2362 80.3407 -17.5043 0
-17.8646 80.9652 -17.4106 0
-17.6632 81.1959 -17.888 0
-17.9441 82.8145 -17.549 0
-17.961 82.2121 -17.4697 0
-17.728 81.8102 -17.902 0
-18.0104 83.4172 -17.6793 0
-18.175 83.9418 -17.9187 0
-16.8001 77.5629 -14.3024 0
-17.4058 77.8288 -14.7874 0
-17.8554 78.1762 -15.4876 0
-18.28 78.5544 -16.3997 0
-7.1075 63.6693 -16.1005 0
-7.45238 63.6271 -16.118 0
-7.43891 61.9912 -15.965 0
-7.75589 61.9549 -16.0013 0
-7.93757 60.734 -16.0623 0
-8.1782 60.8455 -16.0781 0
-8.17395 61.9102 -16.2479 0
-8.5416 60.9784 -16.2242 0
-9.03828 61.3794 -16.3229 0
-9.28128 61.5921 -16.357 0
-8.81299 61.1685 -16.2568 0
-8.98555 60.5498 -15.6695 0
-9.73376 60.8877 -15.5104 0
-10.1389 60.926 -15.8323 0
-9.40856 60.7953 -15.4752 0
-9.22451 60.648 -15.6606 0
-11.1427 61.1302 -15.9447 0
-11.483 61.6846 -16.3343 0
-11.3495 61.9891 -16.7821 0
-11.0521 61.4794 -16.4174 0
-10.5789 61.1001 -16.1656 0
-11.9566 62.0756 -16.5892 0
-12.424 63.4316 -17.6709 0
-12.4784 62.4879 -16.7083 0
-12.801 62.5598 -17.0327 0
-13.8419 62.4908 -18.276 0
-14.0298 62.5645 -18.625 0
-13.0383 62.4376 -17.3841 0
-13.5942 62.5312 -18.0677 0
-13.3252 62.5135 -17.6634 0
-14.2991 62.6503 -19.0231 0
-14.6579 62.9412 -19.4 0
-14.885 63.1401 -19.8852 0
-15.2967 63.4818 -20.0655 0
-16.105 63.8673 -20.026 0
-17.3851 65.1681 -20.8358 0
-15.9138 63.7933 -20.1163 0
-15.6027 63.6393 -20.0991 0
-17.6248 65.1842 -20.7502 0
-16.5554 63.9184 -19.7884 0
-16.8883 63.9102 -19.5863 0
-18.1551 65.3032 -20.5542 0
-18.3766 65.3817 -20.4379 0
-18.6138 65.3476 -20.2898 0
-19.3095 66.6562 -20.775 0
-20.0301 67.994 -20.7488 0
-19.4376 66.8621 -20.4686 0
-19.4923 99.4794 -15.0998 0
-19.4392 99.9099 -14.4676 0
-19.4146 99.5637 -15.9071 0
-19.6573 99.7561 -16.3771 0
-22.1685 99.8721 -15.7709 0
-20.8323 99.7166 -15.8546 0
-26.0763 96.0018 -21.9662 0
-23.4294 99.2155 -16.1321 0
-24.234 98.3818 -16.8575 0
-25.0831 98.0589 -17.5443 0
-25.2634 97.562 -18.4458 0
-25.3894 97.1303 -19.3844 0
-25.6105 96.474 -20.4292 0
-25.7608 95.9054 -21.4398 0
-29.1139 106.662 -24.6138 0
-29.7616 107.24 -24.9067 0
-30.0683 107.621 -24.8478 0
-30.7114 106.849 -25.3284 0
-30.9811 94.2292 -24.5568 0
-31.1494 94.6795 -24.3927 0
-31.8474 105.883 -25.6589 0
-32.99 105.139 -26.01 0
-33.6698 104.455 -26.2642 0
-33.6835 103.583 -25.8613 0
-32.7861 100.716 -25.2736 0
-33.0495 101.785 -25.3163 0
-33.5463 102.73 -25.3665 0
-31.3549 94.7312 -24.4263 0
-31.6092 95.391 -24.378 0
-31.8206 96.0862 -24.0791 0
-32.4396 97.0032 -24.1059 0
-32.6258 97.8759 -24.5533 0
-33.4661 98.8842 -24.3376 0
-33.3648 99.7979 -24.7223 0
-30.6974 93.6049 -24.5825 0
-30.3597 92.9598 -24.6409 0
-30.484 93.0911 -25.2847 0
-30.108 92.6035 -25.2595 0
-29.7157 92.1817 -25.2013 0
-29.2746 91.8536 -25.1309 0
-28.9714 90.9961 -23.8719 0
-29.0627 91.5243 -24.8394 0
-23.7751 86.5914 -22.5221 0
-23.1692 86.3322 -21.9115 0
-27.0978 90.2753 -25.333 0
-26.5898 89.6192 -25.277 0
-24.2916 86.9166 -23.132 0
-24.7333 87.2821 -23.7261 0
-25.1066 87.6771 -24.1865 0
-24.9556 88.0196 -23.8077 0
-25.3104 88.4487 -24.2556 0
-25.971 88.4735 -24.7337 0
-26.379 88.9505 -24.9816 0
-26.2025 95.5316 -22.7468 0
-26.0209 95.039 -23.0347 0
-25.8913 95.0988 -23.7124 0
-25.5893 94.8113 -23.9207 0
-26.0482 94.483 -24.2456 0
-26.5387 94.0793 -24.407 0
-26.4751 93.5926 -24.446 0
-26.7006 93.1867 -24.3964 0
-27.8069 90.9393 -25.119 0
-27.7774 91.4629 -24.897 0
-27.2438 91.7412 -24.7942 0
-26.9651 92.1532 -24.6384 0
-26.6381 92.3938 -24.6231 0
-26.5726 92.7151 -24.4356 0
-26.7635 88.6269 -19.5276 0
-27.518 88.8575 -19.5775 0
-28.9108 90.321 -22.1996 0
-28.8142 90.6573 -23.4422 0
-27.8772 88.9365 -20.1894 0
-28.3098 88.9203 -21.4182 0
-28.4197 89.3051 -22.297 0
-28.4052 89.3792 -21.6747 0
-28.689 89.7142 -22.0157 0
-28.6739 89.9511 -22.3457 0
-28.821 90.0447 -21.7721 0
-22.3602 86.1329 -21.2752 0
-21.3614 85.9675 -20.6548 0
-20.5636 85.6644 -19.785 0
-19.7349 85.3828 -18.9545 0
-18.9192 85.0726 -18.363 0
-19.1917 84.8318 -18.6902 0
-18.3359 84.4562 -18.2283 0
-26.9342 88.4031 -19.4257 0
-26.0885 88.0931 -19.8298 0
-24.9942 87.5362 -20.7962 0
-25.3478 87.7982 -20.0878 0
-25.0511 87.074 -21.2837 0
-25.0067 86.9097 -20.8399 0
-25.3034 86.4172 -21.4083 0
-25.3873 85.8896 -21.9637 0
-25.413 85.4772 -22.5375 0
-25.3976 84.9997 -22.8948 0
-24.2536 83.7178 -22.3864 0
-24.0621 83.1884 -22.5531 0
-23.9142 82.8587 -22.1312 0
-24.7689 84.2033 -22.8327 0
-25.0133 84.57 -22.628 0
-25.2597 84.9925 -22.3648 0
-24.545 84.0974 -22.3008 0
-23.6692 82.4199 -21.7591 0
-23.3339 82.0239 -21.9703 0
-23.2624 81.5018 -22.2938 0
-23.1078 80.8673 -21.9396 0
-22.8688 80.1349 -21.4898 0
-22.9279 79.5051 -21.7231 0
-22.2988 78.079 -21.4265 0
-22.3823 78.7727 -21.2168 0
-22.0727 77.2434 -20.9694 0
-21.0336 70.4828 -20.954 0
-21.43 72.9029 -20.8376 0
-21.3431 71.6776 -20.326 0
-20.7434 70.3802 -19.8348 0
-21.7921 74.7684 -21.029 0
-21.8705 75.5859 -20.7882 0
-21.8696 76.3796 -20.5242 0
-21.3783 73.8746 -20.647 0
-20.5634 69.2753 -20.9567 0
-20.497 69.3054 -20.4247 0
-20.3332 69.1487 -19.7937 0
-28.8165 107.19 -24.087 0
-28.344 106.629 -23.799 0
-28.2425 107.111 -23.2455 0
-28.6337 106.347 -22.5977 0
-28.302 106.695 -22.8975 0
-29.6375 105.165 -22.6533 0
-29.9927 105.775 -22.1902 0
-30.228 104.635 -22.1186 0
-30.0295 104.303 -21.7565 0
-30.1128 105.459 -21.8834 0
-29.6437 103.941 -21.3243 0
-29.476 104.427 -20.9355 0
-28.9489 103.977 -20.543 0
-28.33 104.578 -19.9587 0
-29.5367 106.069 -22.4147 0
-22.5775 104.332 -18.2549 0
-21.6964 105.212 -17.7576 0
-20.9726 105.011 -17.4064 0
-19.3239 99.721 -13.8985 0
-18.7697 99.9091 -12.799 0
-19.1458 100.049 -13.4109 0
-20.0599 106.024 -16.93 0
-19.3277 106.067 -16.6247 0
-18.9374 107.117 -16.5486 0
-18.4892 107.869 -16.3729 0
-17.4098 107.929 -14.8035 0
-16.738 108.083 -15.0469 0
-18.1589 107.755 -15.6393 0
-17.6937 108.326 -15.4027 0
-17.7452 99.8537 -11.4376 0
-18.0265 100.134 -11.7257 0
-17.0919 100.221 -11.0643 0
-13.9573 99.0984 -10.818 0
-14.6746 99.2456 -10.9471 0
-16.3314 99.8345 -11.1084 0
-15.4716 99.4811 -11.0917 0
-11.4286 99.0887 -10.3912 0
-11.9432 99.1642 -10.4839 0
-9.82572 98.2584 -10.4499 0
-10.1867 98.4709 -10.5106 0
-10.9727 98.9224 -10.378 0
-10.5637 98.6974 -10.4488 0
-10.0591 98.7866 -10.7611 0
-13.2249 99.1519 -10.6937 0
-12.5022 99.2226 -10.5749 0
-16.2373 107.397 -14.6283 0
-15.3833 107.431 -14.9459 0
-14.7527 106.977 -14.5381 0
-14.0985 106.601 -14.0979 0
-13.1773 106.78 -14.4196 0
-12.3147 106.883 -14.6205 0
-11.5268 107.074 -14.2675 0
-18.2659 100.353 -12.166 0
-10.746 107.414 -13.9651 0
-10.0649 107.042 -13.7347 0
-8.63006 107.776 -13.7811 0
-7.91593 108.05 -13.8732 0
-7.39601 108.152 -13.7793 0
-10.0479 107.802 -13.7611 0
-9.33239 108.171 -13.749 0
-7.51967 108.858 -13.5837 0
-7.77659 109.56 -13.3692 0
-7.80847 109.327 -13.0244 0
-7.80695 109.049 -12.6754 0
-7.81698 108.57 -12.1688 0
-7.82881 109.899 -12.2484 0
-7.82948 110.803 -11.7785 0
-8.17078 111.613 -11.2142 0
-8.52383 112.444 -10.6474 0
-8.41217 111.992 -9.94703 0
-27.9121 103.886 -19.3959 0
-26.3227 104.682 -19.165 0
-25.5555 104.11 -18.846 0
-24.3325 104.387 -18.7483 0
-23.3042 104.833 -18.5069 0
-5.20228 112.592 -4.33378 0
-5.70856 111.538 -3.54913 0
-4.7134 109.477 -2.74997 0
-6.60733 114.141 -7.05044 0
-6.66811 113.88 -6.12716 0
-7.6968 114.127 -8.50421 0
-7.52242 114.444 -7.84929 0
-8.08204 113.42 -8.99632 0
-6.62376 113.478 -5.07241 0
-3.42911 108.198 -1.95498 0
-2.00554 108.193 -1.04475 0
-1.13144 107.876 -1.47189 0
-0.0573363 108.056 -2.2494 0
0.812963 108.017 -1.12917 0
1.40921 107.323 0.224131 0
2.23253 105.734 1.94374 0
2.31658 105.027 2.3447 0
2.01934 106.633 1.28329 0
2.33405 104.55 1.33892 0
2.20752 103.997 0.234672 0
1.61856 103.424 -0.879802 0
-8.33786 112.66 -9.46954 0
-8.0844 112.152 -8.59206 0
-9.47448 98.0812 -10.3355 0
-9.62481 97.8777 -10.1482 0
-9.34099 97.6866 -10.0352 0
4.72606 97.1043 -8.40648 0
4.89978 96.6613 -8.7997 0
4.51937 95.7928 -8.86956 0
0.645684 102.931 -2.02464 0
-0.289797 103.116 -3.5903 0
4.62305 94.0663 -3.13814 0
5.05345 93.6447 -3.1436 0
5.88859 94.1117 -3.66309 0
5.00771 95.1713 -3.85936 0
5.34425 96.3353 -4.61935 0
5.63644 98.353 -5.54847 0
5.96588 97.688 -5.26855 0
-0.206194 102.145 -4.2709 0
0.0190894 101.388 -4.91902 0
0.647366 101.842 -5.95825 0
1.479 102.278 -6.75482 0
1.99242 101.65 -6.85973 0
2.68642 100.924 -6.6174 0
6.25858 99.7511 -6.12989 0
5.16738 99.0691 -5.75456 0
5.35813 101.234 -6.64648 0
4.78117 99.8993 -6.0619 0
4.37536 100.691 -6.37333 0
3.79607 101.467 -6.77076 0
6.64684 94.6321 -4.20073 0
7.85469 96.7711 -6.58529 0
7.10209 95.0348 -4.97776 0
7.50298 95.5163 -5.79369 0
7.94212 96.0353 -6.59846 0
8.35793 96.3858 -7.36912 0
8.56513 96.7802 -8.03573 0
8.20484 97.2937 -8.39917 0
7.3917 97.4194 -8.30055 0
6.89692 97.5645 -8.3749 0
5.73417 98.0852 -8.34638 0
6.33735 97.5356 -8.32207 0
5.7824 97.499 -8.26393 0
5.2529 97.3303 -8.31525 0
3930 988 3931 0
989 60 988 0
989 988 3930 0
3932 989 3930 0
992 990 60 0
991 249 990 0
991 990 992 0
251 991 992 0
995 993 249 0
994 14 993 0
994 993 995 0
250 994 995 0
996 991 251 0
995 249 991 0
995 991 996 0
250 995 996 0
998 996 251 0
997 250 996 0
997 996 998 0
61 997 998 0
999 3932 3933 0
999 3933 3934 0
3935 999 3934 0
1000 989 3932 0
992 60 989 0
992 989 1000 0
251 992 1000 0
1001 999 3935 0
1000 3932 999 0
1000 999 1001 0
251 1000 1001 0
1002 1001 3935 0
998 251 1001 0
998 1001 1002 0
61 998 1002 0
1004 1002 3935 0
1003 61 1002 0
1003 1002 1004 0
252 1003 1004 0
1004 3935 3936 0
1004 3936 3937 0
252 1004 3937 0
3938 252 3937 0
1007 1005 14 0
1006 253 1005 0
1006 1005 1007 0
255 1006 1007 0
1010 1008 253 0
1009 62 1008 0
1009 1008 1010 0
254 1009 1010 0
1011 1006 255 0
1010 253 1006 0
1010 1006 1011 0
254 1010 1011 0
1013 1011 255 0
1012 254 1011 0
1012 1011 1013 0
64 1012 1013 0
1016 1014 62 0
1015 256 1014 0
1015 1014 1016 0
258 1015 1016 0
1019 1017 256 0
1018 4 1017 0
1018 1017 1019 0
257 1018 1019 0
1020 1015 258 0
1019 256 1015 0
1019 1015 1020 0
257 1019 1020 0
1022 1020 258 0
1021 257 1020 0
1021 1020 1022 0
63 1021 1022 0
1024 1012 64 0
1023 254 1012 0
1023 1012 1024 0
259 1023 1024 0
1025 1009 254 0
1016 62 1009 0
1016 1009 1025 0
258 1016 1025 0
1026 1023 259 0
1025 254 1023 0
1025 1023 1026 0
258 1025 1026 0
1027 1026 259 0
1022 258 1026 0
1022 1026 1027 0
63 1022 1027 0
1029 1024 64 0
1028 259 1024 0
1028 1024 1029 0
261 1028 1029 0
1031 1027 259 0
1030 63 1027 0
1030 1027 1031 0
260 1030 1031 0
1032 1028 261 0
1031 259 1028 0
1031 1028 1032 0
260 1031 1032 0
1034 1032 261 0
1033 260 1032 0
1033 1032 1034 0
15 1033 1034 0
1035 252 3938 0
1035 3938 3939 0
263 1035 3939 0
1037 1003 252 0
1036 61 1003 0
1036 1003 1037 0
262 1036 1037 0
1038 1035 263 0
1037 252 1035 0
1037 1035 1038 0
262 1037 1038 0
1040 1038 263 0
1039 262 1038 0
1039 1038 1040 0
65 1039 1040 0
1042 997 61 0
1041 250 997 0
1041 997 1042 0
264 1041 1042 0
1043 994 250 0
1007 14 994 0
1007 994 1043 0
255 1007 1043 0
1044 1041 264 0
1043 250 1041 0
1043 1041 1044 0
255 1043 1044 0
1045 1044 264 0
1013 255 1044 0
1013 1044 1045 0
64 1013 1045 0
1047 1039 65 0
1046 262 1039 0
1046 1039 1047 0
265 1046 1047 0
1048 1036 262 0
1042 61 1036 0
1042 1036 1048 0
264 1042 1048 0
1049 1046 265 0
1048 262 1046 0
1048 1046 1049 0
264 1048 1049 0
1050 1049 265 0
1045 264 1049 0
1045 1049 1050 0
64 1045 1050 0
1052 1047 65 0
1051 265 1047 0
1051 1047 1052 0
266 1051 1052 0
1053 1050 265 0
1029 64 1050 0
1029 1050 1053 0
261 1029 1053 0
1054 1051 266 0
1053 265 1051 0
1053 1051 1054 0
261 1053 1054 0
1055 1054 266 0
1034 261 1054 0
1034 1054 1055 0
15 1034 1055 0
3940 263 3939 0
1057 1040 263 0
1056 65 1040 0
1056 1040 1057 0
267 1056 1057 0
1058 3940 3941 0
1057 263 3940 0
1057 3940 1058 0
267 1057 1058 0
3942 1058 3941 0
1059 267 1058 0
1059 1058 3942 0
3943 1059 3942 0
1061 1052 65 0
1060 266 1052 0
1060 1052 1061 0
269 1060 1061 0
1063 1055 266 0
1062 15 1055 0
1062 1055 1063 0
268 1062 1063 0
1064 1060 269 0
1063 266 1060 0
1063 1060 1064 0
268 1063 1064 0
1066 1064 269 0
1065 268 1064 0
1065 1064 1066 0
66 1065 1066 0
1068 1059 3943 0
1067 267 1059 0
1067 1059 1068 0
270 1067 1068 0
1069 1056 267 0
1061 65 1056 0
1061 1056 1069 0
269 1061 1069 0
1070 1067 270 0
1069 267 1067 0
1069 1067 1070 0
269 1069 1070 0
1071 1070 270 0
1066 269 1070 0
1066 1070 1071 0
66 1066 1071 0
1073 1068 3943 0
1072 270 1068 0
1072 1068 1073 0
272 1072 1073 0
1075 1071 270 0
1074 66 1071 0
1074 1071 1075 0
271 1074 1075 0
1076 1072 272 0
1075 270 1072 0
1075 1072 1076 0
271 1075 1076 0
1078 1076 272 0
1077 271 1076 0
1077 1076 1078 0
5 1077 1078 0
1081 1079 4 0
1080 273 1079 0
1080 1079 1081 0
275 1080 1081 0
1084 1082 273 0
1083 67 1082 0
1083 1082 1084 0
274 1083 1084 0
1085 1080 275 0
1084 273 1080 0
1084 1080 1085 0
274 1084 1085 0
1087 1085 275 0
1086 274 1085 0
1086 1085 1087 0
69 1086 1087 0
1090 1088 67 0
1089 276 1088 0
1089 1088 1090 0
278 1089 1090 0
1093 1091 276 0
1092 16 1091 0
1092 1091 1093 0
277 1092 1093 0
1094 1089 278 0
1093 276 1089 0
1093 1089 1094 0
277 1093 1094 0
1096 1094 278 0
1095 277 1094 0
1095 1094 1096 0
68 1095 1096 0
1098 1086 69 0
1097 274 1086 0
1097 1086 1098 0
279 1097 1098 0
1099 1083 274 0
1090 67 1083 0
1090 1083 1099 0
278 1090 1099 0
1100 1097 279 0
1099 274 1097 0
1099 1097 1100 0
278 1099 1100 0
1101 1100 279 0
1096 278 1100 0
1096 1100 1101 0
68 1096 1101 0
1103 1098 69 0
1102 279 1098 0
1102 1098 1103 0
281 1102 1103 0
1105 1101 279 0
1104 68 1101 0
1104 1101 1105 0
280 1104 1105 0
1106 1102 281 0
1105 279 1102 0
1105 1102 1106 0
280 1105 1106 0
1108 1106 281 0
1107 280 1106 0
1107 1106 1108 0
17 1107 1108 0
1111 1109 16 0
1110 282 1109 0
1110 1109 1111 0
283 1110 1111 0
3944 1112 282 0
3945 70 1112 0
3945 1112 3944 0
1113 1110 283 0
3944 282 1110 0
3944 1110 1113 0
3946 3944 1113 0
3947 1113 283 0
3948 3946 1113 0
3948 1113 3947 0
3949 3950 70 0
3949 70 3945 0
1115 1107 17 0
1114 280 1107 0
1114 1107 1115 0
3951 1114 1115 0
1117 1104 280 0
1116 68 1104 0
1116 1104 1117 0
3952 1116 1117 0
3953 1114 3951 0
1117 280 1114 0
1117 1114 3953 0
3952 1117 3953 0
1119 1095 68 0
1118 277 1095 0
1118 1095 1119 0
284 1118 1119 0
1120 1092 277 0
1111 16 1092 0
1111 1092 1120 0
283 1111 1120 0
1121 1118 284 0
1120 277 1118 0
1120 1118 1121 0
283 1120 1121 0
1122 1121 284 0
3947 283 1121 0
3947 1121 1122 0
3954 3947 1122 0
1123 1116 3952 0
1119 68 1116 0
1119 1116 1123 0
284 1119 1123 0
1123 3952 3955 0
1123 3955 3956 0
284 1123 3956 0
1122 284 3956 0
1122 3956 3957 0
3954 1122 3957 0
1124 1115 17 0
3958 3951 1115 0
3958 1115 1124 0
285 3958 1124 0
3959 3958 285 0
3960 3959 285 0
1126 1077 5 0
1125 271 1077 0
1125 1077 1126 0
287 1125 1126 0
1128 1074 271 0
1127 66 1074 0
1127 1074 1128 0
286 1127 1128 0
1129 1125 287 0
1128 271 1125 0
1128 1125 1129 0
286 1128 1129 0
1131 1129 287 0
1130 286 1129 0
1130 1129 1131 0
72 1130 1131 0
1133 1065 66 0
1132 268 1065 0
1132 1065 1133 0
289 1132 1133 0
1135 1062 268 0
1134 15 1062 0
1134 1062 1135 0
288 1134 1135 0
1136 1132 289 0
1135 268 1132 0
1135 1132 1136 0
288 1135 1136 0
1138 1136 289 0
1137 288 1136 0
1137 1136 1138 0
71 1137 1138 0
1140 1130 72 0
1139 286 1130 0
1139 1130 1140 0
290 1139 1140 0
1141 1127 286 0
1133 66 1127 0
1133 1127 1141 0
289 1133 1141 0
1142 1139 290 0
1141 286 1139 0
1141 1139 1142 0
289 1141 1142 0
1143 1142 290 0
1138 289 1142 0
1138 1142 1143 0
71 1138 1143 0
1145 1140 72 0
1144 290 1140 0
1144 1140 1145 0
292 1144 1145 0
1147 1143 290 0
1146 71 1143 0
1146 1143 1147 0
291 1146 1147 0
1148 1144 292 0
1147 290 1144 0
1147 1144 1148 0
291 1147 1148 0
1150 1148 292 0
1149 291 1148 0
1149 1148 1150 0
18 1149 1150 0
1152 1033 15 0
1151 260 1033 0
1151 1033 1152 0
294 1151 1152 0
1154 1030 260 0
1153 63 1030 0
1153 1030 1154 0
293 1153 1154 0
1155 1151 294 0
1154 260 1151 0
1154 1151 1155 0
293 1154 1155 0
1157 1155 294 0
1156 293 1155 0
1156 1155 1157 0
73 1156 1157 0
1159 1021 63 0
1158 257 1021 0
1158 1021 1159 0
295 1158 1159 0
1160 1018 257 0
1081 4 1018 0
1081 1018 1160 0
275 1081 1160 0
1161 1158 295 0
1160 257 1158 0
1160 1158 1161 0
275 1160 1161 0
1162 1161 295 0
1087 275 1161 0
1087 1161 1162 0
69 1087 1162 0
1164 1156 73 0
1163 293 1156 0
1163 1156 1164 0
296 1163 1164 0
1165 1153 293 0
1159 63 1153 0
1159 1153 1165 0
295 1159 1165 0
1166 1163 296 0
1165 293 1163 0
1165 1163 1166 0
295 1165 1166 0
1167 1166 296 0
1162 295 1166 0
1162 1166 1167 0
69 1162 1167 0
1169 1164 73 0
1168 296 1164 0
1168 1164 1169 0
297 1168 1169 0
1170 1167 296 0
1103 69 1167 0
1103 1167 1170 0
281 1103 1170 0
1171 1168 297 0
1170 296 1168 0
1170 1168 1171 0
281 1170 1171 0
1172 1171 297 0
1108 281 1171 0
1108 1171 1172 0
17 1108 1172 0
1174 1149 18 0
1173 291 1149 0
1173 1149 1174 0
299 1173 1174 0
1176 1146 291 0
1175 71 1146 0
1175 1146 1176 0
298 1175 1176 0
1177 1173 299 0
1176 291 1173 0
1176 1173 1177 0
298 1176 1177 0
1179 1177 299 0
1178 298 1177 0
1178 1177 1179 0
74 1178 1179 0
1181 1137 71 0
1180 288 1137 0
1180 1137 1181 0
300 1180 1181 0
1182 1134 288 0
1152 15 1134 0
1152 1134 1182 0
294 1152 1182 0
1183 1180 300 0
1182 288 1180 0
1182 1180 1183 0
294 1182 1183 0
1184 1183 300 0
1157 294 1183 0
1157 1183 1184 0
73 1157 1184 0
1186 1178 74 0
1185 298 1178 0
1185 1178 1186 0
301 1185 1186 0
1187 1175 298 0
1181 71 1175 0
1181 1175 1187 0
300 1181 1187 0
1188 1185 301 0
1187 298 1185 0
1187 1185 1188 0
300 1187 1188 0
1189 1188 301 0
1184 300 1188 0
1184 1188 1189 0
73 1184 1189 0
1191 1186 74 0
1190 301 1186 0
1190 1186 1191 0
302 1190 1191 0
1192 1189 301 0
1169 73 1189 0
1169 1189 1192 0
297 1169 1192 0
1193 1190 302 0
1192 301 1190 0
1192 1190 1193 0
297 1192 1193 0
1194 1193 302 0
1172 297 1193 0
1172 1193 1194 0
17 1172 1194 0
1196 1174 18 0
1195 299 1174 0
1195 1174 1196 0
304 1195 1196 0
1198 1179 299 0
1197 74 1179 0
1197 1179 1198 0
303 1197 1198 0
1199 1195 304 0
1198 299 1195 0
1198 1195 1199 0
303 1198 1199 0
1201 1199 304 0
1200 303 1199 0
1200 1199 1201 0
75 1200 1201 0
1203 1191 74 0
1202 302 1191 0
1202 1191 1203 0
305 1202 1203 0
1204 1194 302 0
1124 17 1194 0
1124 1194 1204 0
285 1124 1204 0
1205 1202 305 0
1204 302 1202 0
1204 1202 1205 0
285 1204 1205 0
1206 1205 305 0
3960 285 1205 0
3960 1205 1206 0
3961 3960 1206 0
1208 1200 75 0
1207 303 1200 0
1207 1200 1208 0
3962 1207 1208 0
1209 1197 303 0
1203 74 1197 0
1203 1197 1209 0
305 1203 1209 0
1210 1207 3962 0
1209 303 1207 0
1209 1207 1210 0
305 1209 1210 0
3963 1210 3962 0
1206 305 1210 0
1206 1210 3963 0
3961 1206 3963 0
3964 1208 75 0
3965 3962 1208 0
3965 1208 3964 0
1212 1126 5 0
1211 287 1126 0
1211 1126 1212 0
307 1211 1212 0
1214 1131 287 0
1213 72 1131 0
1213 1131 1214 0
306 1213 1214 0
1215 1211 307 0
1214 287 1211 0
1214 1211 1215 0
306 1214 1215 0
1217 1215 307 0
1216 306 1215 0
1216 1215 1217 0
77 1216 1217 0
1219 1145 72 0
1218 292 1145 0
1218 1145 1219 0
309 1218 1219 0
1221 1150 292 0
1220 18 1150 0
1220 1150 1221 0
308 1220 1221 0
1222 1218 309 0
1221 292 1218 0
1221 1218 1222 0
308 1221 1222 0
1224 1222 309 0
1223 308 1222 0
1223 1222 1224 0
76 1223 1224 0
1226 1216 77 0
1225 306 1216 0
1225 1216 1226 0
310 1225 1226 0
1227 1213 306 0
1219 72 1213 0
1219 1213 1227 0
309 1219 1227 0
1228 1225 310 0
1227 306 1225 0
1227 1225 1228 0
309 1227 1228 0
1229 1228 310 0
1224 309 1228 0
1224 1228 1229 0
76 1224 1229 0
1231 1226 77 0
1230 310 1226 0
1230 1226 1231 0
312 1230 1231 0
1233 1229 310 0
1232 76 1229 0
1232 1229 1233 0
311 1232 1233 0
1234 1230 312 0
1233 310 1230 0
1233 1230 1234 0
311 1233 1234 0
1236 1234 312 0
1235 311 1234 0
1235 1234 1236 0
20 1235 1236 0
1238 1196 18 0
1237 304 1196 0
1237 1196 1238 0
314 1237 1238 0
1240 1201 304 0
1239 75 1201 0
1239 1201 1240 0
313 1239 1240 0
1241 1237 314 0
1240 304 1237 0
1240 1237 1241 0
313 1240 1241 0
1243 1241 314 0
1242 313 1241 0
1242 1241 1243 0
78 1242 1243 0
1244 3964 75 0
3966 3964 1244 0
315 3966 1244 0
3967 3966 315 0
3968 3967 315 0
1246 1242 78 0
1245 313 1242 0
1245 1242 1246 0
316 1245 1246 0
1247 1239 313 0
1244 75 1239 0
1244 1239 1247 0
315 1244 1247 0
1248 1245 316 0
1247 313 1245 0
1247 1245 1248 0
315 1247 1248 0
1249 1248 316 0
3968 315 1248 0
3968 1248 1249 0
3969 3968 1249 0
1251 1246 78 0
1250 316 1246 0
1250 1246 1251 0
318 1250 1251 0
1253 1249 316 0
1252 3969 1249 0
1252 1249 1253 0
317 1252 1253 0
1254 1250 318 0
1253 316 1250 0
1253 1250 1254 0
317 1253 1254 0
1256 1254 318 0
1255 317 1254 0
1255 1254 1256 0
19 1255 1256 0
1258 1235 20 0
1257 311 1235 0
1257 1235 1258 0
320 1257 1258 0
1260 1232 311 0
1259 76 1232 0
1259 1232 1260 0
319 1259 1260 0
1261 1257 320 0
1260 311 1257 0
1260 1257 1261 0
319 1260 1261 0
1263 1261 320 0
1262 319 1261 0
1262 1261 1263 0
79 1262 1263 0
1265 1223 76 0
1264 308 1223 0
1264 1223 1265 0
321 1264 1265 0
1266 1220 308 0
1238 18 1220 0
1238 1220 1266 0
314 1238 1266 0
1267 1264 321 0
1266 308 1264 0
1266 1264 1267 0
314 1266 1267 0
1268 1267 321 0
1243 314 1267 0
1243 1267 1268 0
78 1243 1268 0
1270 1262 79 0
1269 319 1262 0
1269 1262 1270 0
322 1269 1270 0
1271 1259 319 0
1265 76 1259 0
1265 1259 1271 0
321 1265 1271 0
1272 1269 322 0
1271 319 1269 0
1271 1269 1272 0
321 1271 1272 0
1273 1272 322 0
1268 321 1272 0
1268 1272 1273 0
78 1268 1273 0
1275 1270 79 0
1274 322 1270 0
1274 1270 1275 0
323 1274 1275 0
1276 1273 322 0
1251 78 1273 0
1251 1273 1276 0
318 1251 1276 0
1277 1274 323 0
1276 322 1274 0
1276 1274 1277 0
318 1276 1277 0
1278 1277 323 0
1256 318 1277 0
1256 1277 1278 0
19 1256 1278 0
1280 1258 20 0
1279 320 1258 0
1279 1258 1280 0
325 1279 1280 0
1282 1263 320 0
1281 79 1263 0
1281 1263 1282 0
324 1281 1282 0
1283 1279 325 0
1282 320 1279 0
1282 1279 1283 0
324 1282 1283 0
1285 1283 325 0
1284 324 1283 0
1284 1283 1285 0
81 1284 1285 0
1287 1275 79 0
1286 323 1275 0
1286 1275 1287 0
327 1286 1287 0
1289 1278 323 0
1288 19 1278 0
1288 1278 1289 0
326 1288 1289 0
1290 1286 327 0
1289 323 1286 0
1289 1286 1290 0
326 1289 1290 0
1292 1290 327 0
1291 326 1290 0
1291 1290 1292 0
80 1291 1292 0
1294 1284 81 0
1293 324 1284 0
1293 1284 1294 0
328 1293 1294 0
1295 1281 324 0
1287 79 1281 0
1287 1281 1295 0
327 1287 1295 0
1296 1293 328 0
1295 324 1293 0
1295 1293 1296 0
327 1295 1296 0
1297 1296 328 0
1292 327 1296 0
1292 1296 1297 0
80 1292 1297 0
1299 1294 81 0
1298 328 1294 0
1298 1294 1299 0
330 1298 1299 0
1301 1297 328 0
1300 80 1297 0
1300 1297 1301 0
329 1300 1301 0
1302 1298 330 0
1301 328 1298 0
1301 1298 1302 0
329 1301 1302 0
1304 1302 330 0
1303 329 1302 0
1303 1302 1304 0
1 1303 1304 0
331 3970 3971 0
1305 3972 3973 0
1073 3943 3972 0
1073 3972 1305 0
272 1073 1305 0
1306 3970 331 0
1305 3973 3970 0
1305 3970 1306 0
272 1305 1306 0
1307 1306 331 0
1078 272 1306 0
1078 1306 1307 0
5 1078 1307 0
332 3974 3975 0
3976 3974 332 0
1309 3976 332 0
1308 3977 3976 0
1308 3976 1309 0
82 1308 1309 0
1310 1308 82 0
3978 3977 1308 0
3978 1308 1310 0
333 3978 1310 0
3979 3978 333 0
3980 3979 333 0
1312 1310 82 0
1311 333 1310 0
1311 1310 1312 0
335 1311 1312 0
1313 3980 333 0
3981 3980 1313 0
334 3981 1313 0
1314 1311 335 0
1313 333 1311 0
1313 1311 1314 0
334 1313 1314 0
1316 1314 335 0
1315 334 1314 0
1315 1314 1316 0
21 1315 1316 0
3982 1315 21 0
3983 334 1315 0
3983 1315 3982 0
3984 3981 334 0
1317 3983 3985 0
3984 334 3983 0
3984 3983 1317 0
3986 3984 1317 0
3987 1317 3985 0
3988 3986 1317 0
3988 1317 3987 0
1319 3982 21 0
1318 3985 3982 0
1318 3982 1319 0
336 1318 1319 0
1320 1318 336 0
3989 3985 1318 0
3989 1318 1320 0
3990 3989 1320 0
1322 1320 336 0
1321 3990 1320 0
1321 1320 1322 0
83 1321 1322 0
1323 1321 83 0
3991 3990 1321 0
3991 1321 1323 0
3992 3991 1323 0
1325 1323 83 0
1324 3992 1323 0
1324 1323 1325 0
337 1324 1325 0
331 3971 3993 0
1326 1324 337 0
3993 3992 1324 0
3993 1324 1326 0
331 3993 1326 0
1327 1326 337 0
1307 331 1326 0
1307 1326 1327 0
5 1307 1327 0
1328 332 3975 0
1328 3975 3994 0
339 1328 3994 0
1330 1309 332 0
1329 82 1309 0
1329 1309 1330 0
338 1329 1330 0
1331 1328 339 0
1330 332 1328 0
1330 1328 1331 0
338 1330 1331 0
1333 1331 339 0
1332 338 1331 0
1332 1331 1333 0
85 1332 1333 0
1335 1312 82 0
1334 335 1312 0
1334 1312 1335 0
341 1334 1335 0
1337 1316 335 0
1336 21 1316 0
1336 1316 1337 0
340 1336 1337 0
1338 1334 341 0
1337 335 1334 0
1337 1334 1338 0
340 1337 1338 0
1340 1338 341 0
1339 340 1338 0
1339 1338 1340 0
84 1339 1340 0
1342 1332 85 0
1341 338 1332 0
1341 1332 1342 0
342 1341 1342 0
1343 1329 338 0
1335 82 1329 0
1335 1329 1343 0
341 1335 1343 0
1344 1341 342 0
1343 338 1341 0
1343 1341 1344 0
341 1343 1344 0
1345 1344 342 0
1340 341 1344 0
1340 1344 1345 0
84 1340 1345 0
1347 1342 85 0
1346 342 1342 0
1346 1342 1347 0
344 1346 1347 0
1349 1345 342 0
1348 84 1345 0
1348 1345 1349 0
343 1348 1349 0
1350 1346 344 0
1349 342 1346 0
1349 1346 1350 0
343 1349 1350 0
1352 1350 344 0
1351 343 1350 0
1351 1350 1352 0
22 1351 1352 0
1354 1319 21 0
1353 336 1319 0
1353 1319 1354 0
346 1353 1354 0
1356 1322 336 0
1355 83 1322 0
1355 1322 1356 0
345 1355 1356 0
1357 1353 346 0
1356 336 1353 0
1356 1353 1357 0
345 1356 1357 0
1359 1357 346 0
1358 345 1357 0
1358 1357 1359 0
86 1358 1359 0
1361 1325 83 0
1360 337 1325 0
1360 1325 1361 0
347 1360 1361 0
1362 1327 337 0
1212 5 1327 0
1212 1327 1362 0
307 1212 1362 0
1363 1360 347 0
1362 337 1360 0
1362 1360 1363 0
307 1362 1363 0
1364 1363 347 0
1217 307 1363 0
1217 1363 1364 0
77 1217 1364 0
1366 1358 86 0
1365 345 1358 0
1365 1358 1366 0
348 1365 1366 0
1367 1355 345 0
1361 83 1355 0
1361 1355 1367 0
347 1361 1367 0
1368 1365 348 0
1367 345 1365 0
1367 1365 1368 0
347 1367 1368 0
1369 1368 348 0
1364 347 1368 0
1364 1368 1369 0
77 1364 1369 0
1371 1366 86 0
1370 348 1366 0
1370 1366 1371 0
349 1370 1371 0
1372 1369 348 0
1231 77 1369 0
1231 1369 1372 0
312 1231 1372 0
1373 1370 349 0
1372 348 1370 0
1372 1370 1373 0
312 1372 1373 0
1374 1373 349 0
1236 312 1373 0
1236 1373 1374 0
20 1236 1374 0
1376 1351 22 0
1375 343 1351 0
1375 1351 1376 0
351 1375 1376 0
1378 1348 343 0
1377 84 1348 0
1377 1348 1378 0
350 1377 1378 0
1379 1375 351 0
1378 343 1375 0
1378 1375 1379 0
350 1378 1379 0
1381 1379 351 0
1380 350 1379 0
1380 1379 1381 0
87 1380 1381 0
1383 1339 84 0
1382 340 1339 0
1382 1339 1383 0
352 1382 1383 0
1384 1336 340 0
1354 21 1336 0
1354 1336 1384 0
346 1354 1384 0
1385 1382 352 0
1384 340 1382 0
1384 1382 1385 0
346 1384 1385 0
1386 1385 352 0
1359 346 1385 0
1359 1385 1386 0
86 1359 1386 0
1388 1380 87 0
1387 350 1380 0
1387 1380 1388 0
353 1387 1388 0
1389 1377 350 0
1383 84 1377 0
1383 1377 1389 0
352 1383 1389 0
1390 1387 353 0
1389 350 1387 0
1389 1387 1390 0
352 1389 1390 0
1391 1390 353 0
1386 352 1390 0
1386 1390 1391 0
86 1386 1391 0
1393 1388 87 0
1392 353 1388 0
1392 1388 1393 0
354 1392 1393 0
1394 1391 353 0
1371 86 1391 0
1371 1391 1394 0
349 1371 1394 0
1395 1392 354 0
1394 353 1392 0
1394 1392 1395 0
349 1394 1395 0
1396 1395 354 0
1374 349 1395 0
1374 1395 1396 0
20 1374 1396 0
1398 1376 22 0
1397 351 1376 0
1397 1376 1398 0
356 1397 1398 0
1400 1381 351 0
1399 87 1381 0
1399 1381 1400 0
355 1399 1400 0
1401 1397 356 0
1400 351 1397 0
1400 1397 1401 0
355 1400 1401 0
1403 1401 356 0
1402 355 1401 0
1402 1401 1403 0
88 1402 1403 0
1405 1393 87 0
1404 354 1393 0
1404 1393 1405 0
357 1404 1405 0
1406 1396 354 0
1280 20 1396 0
1280 1396 1406 0
325 1280 1406 0
1407 1404 357 0
1406 354 1404 0
1406 1404 1407 0
325 1406 1407 0
1408 1407 357 0
1285 325 1407 0
1285 1407 1408 0
81 1285 1408 0
1410 1402 88 0
1409 355 1402 0
1409 1402 1410 0
358 1409 1410 0
1411 1399 355 0
1405 87 1399 0
1405 1399 1411 0
357 1405 1411 0
1412 1409 358 0
1411 355 1409 0
1411 1409 1412 0
357 1411 1412 0
1413 1412 358 0
1408 357 1412 0
1408 1412 1413 0
81 1408 1413 0
1415 1410 88 0
1414 358 1410 0
1414 1410 1415 0
359 1414 1415 0
1416 1413 358 0
1299 81 1413 0
1299 1413 1416 0
330 1299 1416 0
1417 1414 359 0
1416 358 1414 0
1416 1414 1417 0
330 1416 1417 0
1418 1417 359 0
1304 330 1417 0
1304 1417 1418 0
1 1304 1418 0
3995 339 3994 0
1420 1333 339 0
1419 85 1333 0
1419 1333 1420 0
360 1419 1420 0
1420 339 3995 0
1420 3995 3996 0
360 1420 3996 0
3997 360 3996 0
1422 1347 85 0
1421 344 1347 0
1421 1347 1422 0
362 1421 1422 0
1424 1352 344 0
1423 22 1352 0
1423 1352 1424 0
361 1423 1424 0
1425 1421 362 0
1424 344 1421 0
1424 1421 1425 0
361 1424 1425 0
1427 1425 362 0
1426 361 1425 0
1426 1425 1427 0
89 1426 1427 0
1428 360 3997 0
1428 3997 3998 0
363 1428 3998 0
1429 1419 360 0
1422 85 1419 0
1422 1419 1429 0
362 1422 1429 0
1430 1428 363 0
1429 360 1428 0
1429 1428 1430 0
362 1429 1430 0
1431 1430 363 0
1427 362 1430 0
1427 1430 1431 0
89 1427 1431 0
3999 363 3998 0
4000 1431 363 0
1432 89 1431 0
1432 1431 4000 0
4001 1432 4000 0
4000 363 3999 0
1434 1398 22 0
1433 356 1398 0
1433 1398 1434 0
365 1433 1434 0
1436 1403 356 0
1435 88 1403 0
1435 1403 1436 0
364 1435 1436 0
1437 1433 365 0
1436 356 1433 0
1436 1433 1437 0
364 1436 1437 0
1439 1437 365 0
1438 364 1437 0
1438 1437 1439 0
91 1438 1439 0
1441 1415 88 0
1440 359 1415 0
1440 1415 1441 0
367 1440 1441 0
1443 1418 359 0
1442 1 1418 0
1442 1418 1443 0
366 1442 1443 0
1444 1440 367 0
1443 359 1440 0
1443 1440 1444 0
366 1443 1444 0
1446 1444 367 0
1445 366 1444 0
1445 1444 1446 0
90 1445 1446 0
1448 1438 91 0
1447 364 1438 0
1447 1438 1448 0
368 1447 1448 0
1449 1435 364 0
1441 88 1435 0
1441 1435 1449 0
367 1441 1449 0
1450 1447 368 0
1449 364 1447 0
1449 1447 1450 0
367 1449 1450 0
1451 1450 368 0
1446 367 1450 0
1446 1450 1451 0
90 1446 1451 0
1453 1448 91 0
1452 368 1448 0
1452 1448 1453 0
370 1452 1453 0
1455 1451 368 0
1454 90 1451 0
1454 1451 1455 0
369 1454 1455 0
1456 1452 370 0
1455 368 1452 0
1455 1452 1456 0
369 1455 1456 0
