#!ascii - generated by CreateLabelFiles project 
4881 9409
1955 493 1952 0
1955 1952 1956 0
495 1955 1956 0
1958 1956 496 0
1957 495 1956 0
1957 1956 1958 0
127 1957 1958 0
1960 1951 79 0
1959 494 1951 0
1959 1951 1960 0
497 1959 1960 0
1961 1948 494 0
1953 126 1948 0
1953 1948 1961 0
496 1953 1961 0
1962 1959 497 0
1961 494 1959 0
1961 1959 1962 0
496 1961 1962 0
1963 1962 497 0
1958 496 1962 0
1958 1962 1963 0
127 1958 1963 0
1251 1960 79 0
1964 497 1960 0
1964 1960 1251 0
4561 1964 1251 0
1966 1963 497 0
1965 127 1963 0
1965 1963 1966 0
498 1965 1966 0
1967 1964 4561 0
1966 497 1964 0
1966 1964 1967 0
498 1966 1967 0
4640 1967 4561 0
4641 498 1967 0
4641 1967 4640 0
1970 1968 2 0
1969 499 1968 0
1969 1968 1970 0
501 1969 1970 0
1973 1971 499 0
1972 4642 1971 0
1972 1971 1973 0
500 1972 1973 0
1974 1969 501 0
1973 499 1969 0
1973 1969 1974 0
500 1973 1974 0
1976 1974 501 0
1975 500 1974 0
1975 1974 1976 0
129 1975 1976 0
1977 4643 4644 0
4645 4643 1977 0
128 4645 1977 0
1979 1975 129 0
1978 500 1975 0
1978 1975 1979 0
502 1978 1979 0
1980 1972 500 0
4646 4642 1972 0
4646 1972 1980 0
4644 4646 1980 0
1981 1978 502 0
1980 500 1978 0
1980 1978 1981 0
4644 1980 1981 0
1982 1981 502 0
1977 4644 1981 0
1977 1981 1982 0
128 1977 1982 0
1984 1979 129 0
1983 502 1979 0
1983 1979 1984 0
504 1983 1984 0
1986 1982 502 0
1985 128 1982 0
1985 1982 1986 0
503 1985 1986 0
1987 1983 504 0
1986 502 1983 0
1986 1983 1987 0
503 1986 1987 0
1989 1987 504 0
1988 503 1987 0
1988 1987 1989 0
34 1988 1989 0
1991 1988 34 0
1990 503 1988 0
1990 1988 1991 0
506 1990 1991 0
1993 1985 503 0
1992 128 1985 0
1992 1985 1993 0
505 1992 1993 0
1994 1990 506 0
1993 503 1990 0
1993 1990 1994 0
505 1993 1994 0
1996 1994 506 0
1995 505 1994 0
1995 1994 1996 0
130 1995 1996 0
4647 4645 128 0
1997 1995 130 0
4648 505 1995 0
4648 1995 1997 0
4649 4648 1997 0
4650 1992 505 0
4647 128 1992 0
4647 1992 4650 0
4650 505 4648 0
1998 1997 130 0
4651 4649 1997 0
4651 1997 1998 0
507 4651 1998 0
4652 4651 507 0
4653 4652 507 0
2000 1991 34 0
1999 506 1991 0
1999 1991 2000 0
509 1999 2000 0
2002 1996 506 0
2001 130 1996 0
2001 1996 2002 0
508 2001 2002 0
2003 1999 509 0
2002 506 1999 0
2002 1999 2003 0
508 2002 2003 0
2005 2003 509 0
2004 508 2003 0
2004 2003 2005 0
132 2004 2005 0
2007 1998 130 0
2006 507 1998 0
2006 1998 2007 0
510 2006 2007 0
4654 4653 507 0
2008 2006 510 0
4654 507 2006 0
4654 2006 2008 0
4655 4654 2008 0
2010 2008 510 0
2009 4655 2008 0
2009 2008 2010 0
131 2009 2010 0
2012 2004 132 0
2011 508 2004 0
2011 2004 2012 0
511 2011 2012 0
2013 2001 508 0
2007 130 2001 0
2007 2001 2013 0
510 2007 2013 0
2014 2011 511 0
2013 508 2011 0
2013 2011 2014 0
510 2013 2014 0
2015 2014 511 0
2010 510 2014 0
2010 2014 2015 0
131 2010 2015 0
2017 2012 132 0
2016 511 2012 0
2016 2012 2017 0
513 2016 2017 0
2019 2015 511 0
2018 131 2015 0
2018 2015 2019 0
512 2018 2019 0
2020 2016 513 0
2019 511 2016 0
2019 2016 2020 0
512 2019 2020 0
2022 2020 513 0
2021 512 2020 0
2021 2020 2022 0
10 2021 2022 0
2024 2021 10 0
2023 512 2021 0
2023 2021 2024 0
515 2023 2024 0
2026 2018 512 0
2025 131 2018 0
2025 2018 2026 0
514 2025 2026 0
2027 2023 515 0
2026 512 2023 0
2026 2023 2027 0
514 2026 2027 0
2029 2027 515 0
2028 514 2027 0
2028 2027 2029 0
133 2028 2029 0
2030 2009 131 0
4656 4655 2009 0
4656 2009 2030 0
516 4656 2030 0
4657 4656 516 0
4658 4657 516 0
2032 2028 133 0
2031 514 2028 0
2031 2028 2032 0
517 2031 2032 0
2033 2025 514 0
2030 131 2025 0
2030 2025 2033 0
516 2030 2033 0
2034 2031 517 0
2033 514 2031 0
2033 2031 2034 0
516 2033 2034 0
4659 2034 517 0
4658 516 2034 0
4658 2034 4659 0
2036 2032 133 0
2035 517 2032 0
2035 2032 2036 0
518 2035 2036 0
4660 4659 517 0
4661 2035 518 0
4660 517 2035 0
4660 2035 4661 0
4662 4661 518 0
2038 2024 10 0
2037 515 2024 0
2037 2024 2038 0
520 2037 2038 0
2040 2029 515 0
2039 133 2029 0
2039 2029 2040 0
519 2039 2040 0
2041 2037 520 0
2040 515 2037 0
2040 2037 2041 0
519 2040 2041 0
2043 2041 520 0
2042 519 2041 0
2042 2041 2043 0
135 2042 2043 0
2045 2036 133 0
2044 518 2036 0
2044 2036 2045 0
522 2044 2045 0
2046 4662 518 0
4663 4662 2046 0
521 4663 2046 0
2047 2044 522 0
2046 518 2044 0
2046 2044 2047 0
521 2046 2047 0
2049 2047 522 0
2048 521 2047 0
2048 2047 2049 0
134 2048 2049 0
2051 2042 135 0
2050 519 2042 0
2050 2042 2051 0
523 2050 2051 0
2052 2039 519 0
2045 133 2039 0
2045 2039 2052 0
522 2045 2052 0
2053 2050 523 0
2052 519 2050 0
2052 2050 2053 0
522 2052 2053 0
2054 2053 523 0
2049 522 2053 0
2049 2053 2054 0
134 2049 2054 0
2056 2051 135 0
2055 523 2051 0
2055 2051 2056 0
525 2055 2056 0
2058 2054 523 0
2057 134 2054 0
2057 2054 2058 0
524 2057 2058 0
2059 2055 525 0
2058 523 2055 0
2058 2055 2059 0
524 2058 2059 0
2061 2059 525 0
2060 524 2059 0
2060 2059 2061 0
35 2060 2061 0
2063 2060 35 0
2062 524 2060 0
2062 2060 2063 0
527 2062 2063 0
2065 2057 524 0
2064 134 2057 0
2064 2057 2065 0
526 2064 2065 0
2066 2062 527 0
2065 524 2062 0
2065 2062 2066 0
526 2065 2066 0
2068 2066 527 0
2067 526 2066 0
2067 2066 2068 0
136 2067 2068 0
2070 2048 134 0
2069 521 2048 0
2069 2048 2070 0
528 2069 2070 0
2071 4663 521 0
4664 4663 2071 0
4665 4664 2071 0
4666 2069 528 0
2071 521 2069 0
2071 2069 4666 0
4665 2071 4666 0
4667 4666 528 0
2073 2067 136 0
2072 526 2067 0
2072 2067 2073 0
529 2072 2073 0
2074 2064 526 0
2070 134 2064 0
2070 2064 2074 0
528 2070 2074 0
2075 2072 529 0
2074 526 2072 0
2074 2072 2075 0
528 2074 2075 0
4668 2075 529 0
4667 528 2075 0
4667 2075 4668 0
2077 2073 136 0
2076 529 2073 0
2076 2073 2077 0
530 2076 2077 0
2078 4668 529 0
4669 4668 2078 0
4670 4669 2078 0
4671 2076 530 0
2078 529 2076 0
2078 2076 4671 0
4670 2078 4671 0
2079 4671 530 0
4672 4671 2079 0
4673 4672 2079 0
2081 2063 35 0
2080 527 2063 0
2080 2063 2081 0
532 2080 2081 0
2083 2068 527 0
2082 136 2068 0
2082 2068 2083 0
531 2082 2083 0
2084 2080 532 0
2083 527 2080 0
2083 2080 2084 0
531 2083 2084 0
2086 2084 532 0
2085 531 2084 0
2085 2084 2086 0
138 2085 2086 0
2088 2077 136 0
2087 530 2077 0
2087 2077 2088 0
534 2087 2088 0
2090 2079 530 0
2089 4673 2079 0
2089 2079 2090 0
533 2089 2090 0
2091 2087 534 0
2090 530 2087 0
2090 2087 2091 0
533 2090 2091 0
2093 2091 534 0
2092 533 2091 0
2092 2091 2093 0
137 2092 2093 0
2095 2085 138 0
2094 531 2085 0
2094 2085 2095 0
535 2094 2095 0
2096 2082 531 0
2088 136 2082 0
2088 2082 2096 0
534 2088 2096 0
2097 2094 535 0
2096 531 2094 0
2096 2094 2097 0
534 2096 2097 0
2098 2097 535 0
2093 534 2097 0
2093 2097 2098 0
137 2093 2098 0
2100 2095 138 0
2099 535 2095 0
2099 2095 2100 0
537 2099 2100 0
2102 2098 535 0
2101 137 2098 0
2101 2098 2102 0
536 2101 2102 0
2103 2099 537 0
2102 535 2099 0
2102 2099 2103 0
536 2102 2103 0
2105 2103 537 0
2104 536 2103 0
2104 2103 2105 0
3 2104 2105 0
2106 498 4641 0
2106 4641 4674 0
539 2106 4674 0
2108 1965 498 0
2107 127 1965 0
2107 1965 2108 0
538 2107 2108 0
2109 2106 539 0
2108 498 2106 0
2108 2106 2109 0
538 2108 2109 0
2111 2109 539 0
2110 538 2109 0
2110 2109 2111 0
140 2110 2111 0
2113 1957 127 0
2112 495 1957 0
2112 1957 2113 0
541 2112 2113 0
2115 1954 495 0
2114 33 1954 0
2114 1954 2115 0
540 2114 2115 0
2116 2112 541 0
2115 495 2112 0
2115 2112 2116 0
540 2115 2116 0
2118 2116 541 0
2117 540 2116 0
2117 2116 2118 0
139 2117 2118 0
2120 2110 140 0
2119 538 2110 0
2119 2110 2120 0
542 2119 2120 0
2121 2107 538 0
2113 127 2107 0
2113 2107 2121 0
541 2113 2121 0
2122 2119 542 0
2121 538 2119 0
2121 2119 2122 0
541 2121 2122 0
2123 2122 542 0
2118 541 2122 0
2118 2122 2123 0
139 2118 2123 0
2125 2120 140 0
2124 542 2120 0
2124 2120 2125 0
544 2124 2125 0
2127 2123 542 0
2126 139 2123 0
2126 2123 2127 0
543 2126 2127 0
2128 2124 544 0
2127 542 2124 0
2127 2124 2128 0
543 2127 2128 0
2130 2128 544 0
2129 543 2128 0
2129 2128 2130 0
37 2129 2130 0
2132 1923 33 0
2131 487 1923 0
2131 1923 2132 0
546 2131 2132 0
2134 1920 487 0
2133 124 1920 0
2133 1920 2134 0
545 2133 2134 0
2135 2131 546 0
2134 487 2131 0
2134 2131 2135 0
545 2134 2135 0
2137 2135 546 0
2136 545 2135 0
2136 2135 2137 0
142 2136 2137 0
2139 1911 124 0
2138 484 1911 0
2138 1911 2139 0
548 2138 2139 0
2141 1908 484 0
2140 9 1908 0
2140 1908 2141 0
547 2140 2141 0
2142 2138 548 0
2141 484 2138 0
2141 2138 2142 0
547 2141 2142 0
2144 2142 548 0
2143 547 2142 0
2143 2142 2144 0
141 2143 2144 0
2146 2136 142 0
2145 545 2136 0
2145 2136 2146 0
549 2145 2146 0
2147 2133 545 0
2139 124 2133 0
2139 2133 2147 0
548 2139 2147 0
2148 2145 549 0
2147 545 2145 0
2147 2145 2148 0
548 2147 2148 0
2149 2148 549 0
2144 548 2148 0
2144 2148 2149 0
141 2144 2149 0
2151 2146 142 0
2150 549 2146 0
2150 2146 2151 0
551 2150 2151 0
2153 2149 549 0
2152 141 2149 0
2152 2149 2153 0
550 2152 2153 0
2154 2150 551 0
2153 549 2150 0
2153 2150 2154 0
550 2153 2154 0
2156 2154 551 0
2155 550 2154 0
2155 2154 2156 0
36 2155 2156 0
2158 2129 37 0
2157 543 2129 0
2157 2129 2158 0
553 2157 2158 0
2160 2126 543 0
2159 139 2126 0
2159 2126 2160 0
552 2159 2160 0
2161 2157 553 0
2160 543 2157 0
2160 2157 2161 0
552 2160 2161 0
2163 2161 553 0
2162 552 2161 0
2162 2161 2163 0
143 2162 2163 0
2165 2117 139 0
2164 540 2117 0
2164 2117 2165 0
554 2164 2165 0
2166 2114 540 0
2132 33 2114 0
2132 2114 2166 0
546 2132 2166 0
2167 2164 554 0
2166 540 2164 0
2166 2164 2167 0
546 2166 2167 0
2168 2167 554 0
2137 546 2167 0
2137 2167 2168 0
142 2137 2168 0
2170 2162 143 0
2169 552 2162 0
2169 2162 2170 0
555 2169 2170 0
2171 2159 552 0
2165 139 2159 0
2165 2159 2171 0
554 2165 2171 0
2172 2169 555 0
2171 552 2169 0
2171 2169 2172 0
554 2171 2172 0
2173 2172 555 0
2168 554 2172 0
2168 2172 2173 0
142 2168 2173 0
2175 2170 143 0
2174 555 2170 0
2174 2170 2175 0
556 2174 2175 0
2176 2173 555 0
2151 142 2173 0
2151 2173 2176 0
551 2151 2176 0
2177 2174 556 0
2176 555 2174 0
2176 2174 2177 0
551 2176 2177 0
2178 2177 556 0
2156 551 2177 0
2156 2177 2178 0
36 2156 2178 0
2180 2158 37 0
2179 553 2158 0
2179 2158 2180 0
558 2179 2180 0
2182 2163 553 0
2181 143 2163 0
2181 2163 2182 0
557 2181 2182 0
2183 2179 558 0
2182 553 2179 0
2182 2179 2183 0
557 2182 2183 0
2185 2183 558 0
2184 557 2183 0
2184 2183 2185 0
145 2184 2185 0
2187 2175 143 0
2186 556 2175 0
2186 2175 2187 0
560 2186 2187 0
2189 2178 556 0
2188 36 2178 0
2188 2178 2189 0
559 2188 2189 0
2190 2186 560 0
2189 556 2186 0
2189 2186 2190 0
559 2189 2190 0
2192 2190 560 0
2191 559 2190 0
2191 2190 2192 0
144 2191 2192 0
2194 2184 145 0
2193 557 2184 0
2193 2184 2194 0
561 2193 2194 0
2195 2181 557 0
2187 143 2181 0
2187 2181 2195 0
560 2187 2195 0
2196 2193 561 0
2195 557 2193 0
2195 2193 2196 0
560 2195 2196 0
2197 2196 561 0
2192 560 2196 0
2192 2196 2197 0
144 2192 2197 0
2199 2194 145 0
2198 561 2194 0
2198 2194 2199 0
563 2198 2199 0
2201 2197 561 0
2200 144 2197 0
2200 2197 2201 0
562 2200 2201 0
2202 2198 563 0
2201 561 2198 0
2201 2198 2202 0
562 2201 2202 0
2204 2202 563 0
2203 562 2202 0
2203 2202 2204 0
11 2203 2204 0
2206 1783 9 0
2205 453 1783 0
2205 1783 2206 0
565 2205 2206 0
2208 1780 453 0
2207 116 1780 0
2207 1780 2208 0
564 2207 2208 0
2209 2205 565 0
2208 453 2205 0
2208 2205 2209 0
564 2208 2209 0
2211 2209 565 0
2210 564 2209 0
2210 2209 2211 0
147 2210 2211 0
2213 1771 116 0
2212 450 1771 0
2212 1771 2213 0
567 2212 2213 0
2215 1768 450 0
2214 30 1768 0
2214 1768 2215 0
566 2214 2215 0
2216 2212 567 0
2215 450 2212 0
2215 2212 2216 0
566 2215 2216 0
2218 2216 567 0
2217 566 2216 0
2217 2216 2218 0
146 2217 2218 0
2220 2210 147 0
2219 564 2210 0
2219 2210 2220 0
568 2219 2220 0
2221 2207 564 0
2213 116 2207 0
2213 2207 2221 0
567 2213 2221 0
2222 2219 568 0
2221 564 2219 0
2221 2219 2222 0
567 2221 2222 0
2223 2222 568 0
2218 567 2222 0
2218 2222 2223 0
146 2218 2223 0
2225 2220 147 0
2224 568 2220 0
2224 2220 2225 0
570 2224 2225 0
2227 2223 568 0
2226 146 2223 0
2226 2223 2227 0
569 2226 2227 0
2228 2224 570 0
2227 568 2224 0
2227 2224 2228 0
569 2227 2228 0
2230 2228 570 0
2229 569 2228 0
2229 2228 2230 0
38 2229 2230 0
2232 1735 30 0
2231 441 1735 0
2231 1735 2232 0
572 2231 2232 0
2234 1732 441 0
2233 113 1732 0
2233 1732 2234 0
571 2233 2234 0
2235 2231 572 0
2234 441 2231 0
2234 2231 2235 0
571 2234 2235 0
2237 2235 572 0
2236 571 2235 0
2236 2235 2237 0
148 2236 2237 0
2239 1723 113 0
2238 438 1723 0
2238 1723 2239 0
573 2238 2239 0
2240 1720 438 0
1970 2 1720 0
1970 1720 2240 0
501 1970 2240 0
2241 2238 573 0
2240 438 2238 0
2240 2238 2241 0
501 2240 2241 0
2242 2241 573 0
1976 501 2241 0
1976 2241 2242 0
129 1976 2242 0
2244 2236 148 0
2243 571 2236 0
2243 2236 2244 0
574 2243 2244 0
2245 2233 571 0
2239 113 2233 0
2239 2233 2245 0
573 2239 2245 0
2246 2243 574 0
2245 571 2243 0
2245 2243 2246 0
573 2245 2246 0
2247 2246 574 0
2242 573 2246 0
2242 2246 2247 0
129 2242 2247 0
2249 2244 148 0
2248 574 2244 0
2248 2244 2249 0
575 2248 2249 0
2250 2247 574 0
1984 129 2247 0
1984 2247 2250 0
504 1984 2250 0
2251 2248 575 0
2250 574 2248 0
2250 2248 2251 0
504 2250 2251 0
2252 2251 575 0
1989 504 2251 0
1989 2251 2252 0
34 1989 2252 0
2254 2229 38 0
2253 569 2229 0
2253 2229 2254 0
577 2253 2254 0
2256 2226 569 0
2255 146 2226 0
2255 2226 2256 0
576 2255 2256 0
2257 2253 577 0
2256 569 2253 0
2256 2253 2257 0
576 2256 2257 0
2259 2257 577 0
2258 576 2257 0
2258 2257 2259 0
149 2258 2259 0
2261 2217 146 0
2260 566 2217 0
2260 2217 2261 0
578 2260 2261 0
2262 2214 566 0
2232 30 2214 0
2232 2214 2262 0
572 2232 2262 0
2263 2260 578 0
2262 566 2260 0
2262 2260 2263 0
572 2262 2263 0
2264 2263 578 0
2237 572 2263 0
2237 2263 2264 0
148 2237 2264 0
2266 2258 149 0
2265 576 2258 0
2265 2258 2266 0
579 2265 2266 0
2267 2255 576 0
2261 146 2255 0
2261 2255 2267 0
578 2261 2267 0
2268 2265 579 0
2267 576 2265 0
2267 2265 2268 0
578 2267 2268 0
2269 2268 579 0
2264 578 2268 0
2264 2268 2269 0
148 2264 2269 0
2271 2266 149 0
2270 579 2266 0
2270 2266 2271 0
580 2270 2271 0
2272 2269 579 0
2249 148 2269 0
2249 2269 2272 0
575 2249 2272 0
2273 2270 580 0
2272 579 2270 0
2272 2270 2273 0
575 2272 2273 0
2274 2273 580 0
2252 575 2273 0
2252 2273 2274 0
34 2252 2274 0
2276 2254 38 0
2275 577 2254 0
2275 2254 2276 0
582 2275 2276 0
2278 2259 577 0
2277 149 2259 0
2277 2259 2278 0
581 2277 2278 0
2279 2275 582 0
2278 577 2275 0
2278 2275 2279 0
581 2278 2279 0
2281 2279 582 0
2280 581 2279 0
2280 2279 2281 0
150 2280 2281 0
2283 2271 149 0
2282 580 2271 0
2282 2271 2283 0
583 2282 2283 0
2284 2274 580 0
2000 34 2274 0
2000 2274 2284 0
509 2000 2284 0
2285 2282 583 0
2284 580 2282 0
2284 2282 2285 0
509 2284 2285 0
2286 2285 583 0
2005 509 2285 0
2005 2285 2286 0
132 2005 2286 0
2288 2280 150 0
2287 581 2280 0
2287 2280 2288 0
584 2287 2288 0
2289 2277 581 0
2283 149 2277 0
2283 2277 2289 0
583 2283 2289 0
2290 2287 584 0
2289 581 2287 0
2289 2287 2290 0
583 2289 2290 0
2291 2290 584 0
2286 583 2290 0
2286 2290 2291 0
132 2286 2291 0
2293 2288 150 0
2292 584 2288 0
2292 2288 2293 0
585 2292 2293 0
2294 2291 584 0
2017 132 2291 0
2017 2291 2294 0
513 2017 2294 0
2295 2292 585 0
2294 584 2292 0
2294 2292 2295 0
513 2294 2295 0
2296 2295 585 0
2022 513 2295 0
2022 2295 2296 0
10 2022 2296 0
2298 2203 11 0
2297 562 2203 0
2297 2203 2298 0
587 2297 2298 0
2300 2200 562 0
2299 144 2200 0
2299 2200 2300 0
586 2299 2300 0
2301 2297 587 0
2300 562 2297 0
2300 2297 2301 0
586 2300 2301 0
2303 2301 587 0
2302 586 2301 0
2302 2301 2303 0
152 2302 2303 0
2305 2191 144 0
2304 559 2191 0
2304 2191 2305 0
589 2304 2305 0
2307 2188 559 0
2306 36 2188 0
2306 2188 2307 0
588 2306 2307 0
2308 2304 589 0
2307 559 2304 0
2307 2304 2308 0
588 2307 2308 0
2310 2308 589 0
2309 588 2308 0
2309 2308 2310 0
151 2309 2310 0
2312 2302 152 0
2311 586 2302 0
2311 2302 2312 0
590 2311 2312 0
2313 2299 586 0
2305 144 2299 0
2305 2299 2313 0
589 2305 2313 0
2314 2311 590 0
2313 586 2311 0
2313 2311 2314 0
589 2313 2314 0
2315 2314 590 0
2310 589 2314 0
2310 2314 2315 0
151 2310 2315 0
2317 2312 152 0
2316 590 2312 0
2316 2312 2317 0
592 2316 2317 0
2319 2315 590 0
2318 151 2315 0
2318 2315 2319 0
591 2318 2319 0
2320 2316 592 0
2319 590 2316 0
2319 2316 2320 0
591 2319 2320 0
2322 2320 592 0
2321 591 2320 0
2321 2320 2322 0
39 2321 2322 0
2324 2155 36 0
2323 550 2155 0
2323 2155 2324 0
594 2323 2324 0
2326 2152 550 0
2325 141 2152 0
2325 2152 2326 0
593 2325 2326 0
2327 2323 594 0
2326 550 2323 0
2326 2323 2327 0
593 2326 2327 0
2329 2327 594 0
2328 593 2327 0
2328 2327 2329 0
153 2328 2329 0
2331 2143 141 0
2330 547 2143 0
2330 2143 2331 0
595 2330 2331 0
2332 2140 547 0
2206 9 2140 0
2206 2140 2332 0
565 2206 2332 0
2333 2330 595 0
2332 547 2330 0
2332 2330 2333 0
565 2332 2333 0
2334 2333 595 0
2211 565 2333 0
2211 2333 2334 0
147 2211 2334 0
2336 2328 153 0
2335 593 2328 0
2335 2328 2336 0
596 2335 2336 0
2337 2325 593 0
2331 141 2325 0
2331 2325 2337 0
595 2331 2337 0
2338 2335 596 0
2337 593 2335 0
2337 2335 2338 0
595 2337 2338 0
2339 2338 596 0
2334 595 2338 0
2334 2338 2339 0
147 2334 2339 0
2341 2336 153 0
2340 596 2336 0
2340 2336 2341 0
597 2340 2341 0
2342 2339 596 0
2225 147 2339 0
2225 2339 2342 0
570 2225 2342 0
2343 2340 597 0
2342 596 2340 0
2342 2340 2343 0
570 2342 2343 0
2344 2343 597 0
2230 570 2343 0
2230 2343 2344 0
38 2230 2344 0
2346 2321 39 0
2345 591 2321 0
2345 2321 2346 0
599 2345 2346 0
2348 2318 591 0
2347 151 2318 0
2347 2318 2348 0
598 2347 2348 0
2349 2345 599 0
2348 591 2345 0
2348 2345 2349 0
598 2348 2349 0
2351 2349 599 0
2350 598 2349 0
2350 2349 2351 0
154 2350 2351 0
2353 2309 151 0
2352 588 2309 0
2352 2309 2353 0
600 2352 2353 0
2354 2306 588 0
2324 36 2306 0
2324 2306 2354 0
594 2324 2354 0
2355 2352 600 0
2354 588 2352 0
2354 2352 2355 0
594 2354 2355 0
2356 2355 600 0
2329 594 2355 0
2329 2355 2356 0
153 2329 2356 0
2358 2350 154 0
2357 598 2350 0
2357 2350 2358 0
601 2357 2358 0
2359 2347 598 0
2353 151 2347 0
2353 2347 2359 0
600 2353 2359 0
2360 2357 601 0
2359 598 2357 0
2359 2357 2360 0
600 2359 2360 0
2361 2360 601 0
2356 600 2360 0
2356 2360 2361 0
153 2356 2361 0
2363 2358 154 0
2362 601 2358 0
2362 2358 2363 0
602 2362 2363 0
2364 2361 601 0
2341 153 2361 0
2341 2361 2364 0
597 2341 2364 0
2365 2362 602 0
2364 601 2362 0
2364 2362 2365 0
597 2364 2365 0
2366 2365 602 0
2344 597 2365 0
2344 2365 2366 0
38 2344 2366 0
2368 2346 39 0
2367 599 2346 0
2367 2346 2368 0
604 2367 2368 0
2370 2351 599 0
2369 154 2351 0
2369 2351 2370 0
603 2369 2370 0
2371 2367 604 0
2370 599 2367 0
2370 2367 2371 0
603 2370 2371 0
2373 2371 604 0
2372 603 2371 0
2372 2371 2373 0
155 2372 2373 0
2375 2363 154 0
2374 602 2363 0
2374 2363 2375 0
605 2374 2375 0
2376 2366 602 0
2276 38 2366 0
2276 2366 2376 0
582 2276 2376 0
2377 2374 605 0
2376 602 2374 0
2376 2374 2377 0
582 2376 2377 0
2378 2377 605 0
2281 582 2377 0
2281 2377 2378 0
150 2281 2378 0
2380 2372 155 0
2379 603 2372 0
2379 2372 2380 0
606 2379 2380 0
2381 2369 603 0
2375 154 2369 0
2375 2369 2381 0
605 2375 2381 0
2382 2379 606 0
2381 603 2379 0
2381 2379 2382 0
605 2381 2382 0
2383 2382 606 0
2378 605 2382 0
2378 2382 2383 0
150 2378 2383 0
2385 2380 155 0
2384 606 2380 0
2384 2380 2385 0
607 2384 2385 0
2386 2383 606 0
2293 150 2383 0
2293 2383 2386 0
585 2293 2386 0
2387 2384 607 0
2386 606 2384 0
2386 2384 2387 0
585 2386 2387 0
2388 2387 607 0
2296 585 2387 0
2296 2387 2388 0
10 2296 2388 0
2390 2298 11 0
2389 587 2298 0
2389 2298 2390 0
609 2389 2390 0
2392 2303 587 0
2391 152 2303 0
2391 2303 2392 0
608 2391 2392 0
2393 2389 609 0
2392 587 2389 0
2392 2389 2393 0
608 2392 2393 0
2395 2393 609 0
2394 608 2393 0
2394 2393 2395 0
157 2394 2395 0
2397 2317 152 0
2396 592 2317 0
2396 2317 2397 0
611 2396 2397 0
2399 2322 592 0
2398 39 2322 0
2398 2322 2399 0
610 2398 2399 0
2400 2396 611 0
2399 592 2396 0
2399 2396 2400 0
610 2399 2400 0
2402 2400 611 0
2401 610 2400 0
2401 2400 2402 0
156 2401 2402 0
2404 2394 157 0
2403 608 2394 0
2403 2394 2404 0
612 2403 2404 0
2405 2391 608 0
2397 152 2391 0
2397 2391 2405 0
611 2397 2405 0
2406 2403 612 0
2405 608 2403 0
2405 2403 2406 0
611 2405 2406 0
2407 2406 612 0
2402 611 2406 0
2402 2406 2407 0
156 2402 2407 0
2409 2404 157 0
2408 612 2404 0
2408 2404 2409 0
614 2408 2409 0
2411 2407 612 0
2410 156 2407 0
2410 2407 2411 0
613 2410 2411 0
2412 2408 614 0
2411 612 2408 0
2411 2408 2412 0
613 2411 2412 0
2414 2412 614 0
2413 613 2412 0
2413 2412 2414 0
40 2413 2414 0
2416 2368 39 0
2415 604 2368 0
2415 2368 2416 0
616 2415 2416 0
2418 2373 604 0
2417 155 2373 0
2417 2373 2418 0
615 2417 2418 0
2419 2415 616 0
2418 604 2415 0
2418 2415 2419 0
615 2418 2419 0
2421 2419 616 0
2420 615 2419 0
2420 2419 2421 0
158 2420 2421 0
2423 2385 155 0
2422 607 2385 0
2422 2385 2423 0
617 2422 2423 0
2424 2388 607 0
2038 10 2388 0
2038 2388 2424 0
520 2038 2424 0
2425 2422 617 0
2424 607 2422 0
2424 2422 2425 0
520 2424 2425 0
2426 2425 617 0
2043 520 2425 0
2043 2425 2426 0
135 2043 2426 0
2428 2420 158 0
2427 615 2420 0
2427 2420 2428 0
618 2427 2428 0
2429 2417 615 0
2423 155 2417 0
2423 2417 2429 0
617 2423 2429 0
2430 2427 618 0
2429 615 2427 0
2429 2427 2430 0
617 2429 2430 0
2431 2430 618 0
2426 617 2430 0
2426 2430 2431 0
135 2426 2431 0
2433 2428 158 0
2432 618 2428 0
2432 2428 2433 0
619 2432 2433 0
2434 2431 618 0
2056 135 2431 0
2056 2431 2434 0
525 2056 2434 0
2435 2432 619 0
2434 618 2432 0
2434 2432 2435 0
525 2434 2435 0
2436 2435 619 0
2061 525 2435 0
2061 2435 2436 0
35 2061 2436 0
2438 2413 40 0
2437 613 2413 0
2437 2413 2438 0
621 2437 2438 0
2440 2410 613 0
2439 156 2410 0
2439 2410 2440 0
620 2439 2440 0
2441 2437 621 0
2440 613 2437 0
2440 2437 2441 0
620 2440 2441 0
2443 2441 621 0
2442 620 2441 0
2442 2441 2443 0
159 2442 2443 0
2445 2401 156 0
2444 610 2401 0
2444 2401 2445 0
622 2444 2445 0
2446 2398 610 0
2416 39 2398 0
2416 2398 2446 0
616 2416 2446 0
2447 2444 622 0
2446 610 2444 0
2446 2444 2447 0
616 2446 2447 0
2448 2447 622 0
2421 616 2447 0
2421 2447 2448 0
158 2421 2448 0
2450 2442 159 0
2449 620 2442 0
2449 2442 2450 0
623 2449 2450 0
2451 2439 620 0
2445 156 2439 0
2445 2439 2451 0
622 2445 2451 0
2452 2449 623 0
2451 620 2449 0
2451 2449 2452 0
622 2451 2452 0
2453 2452 623 0
2448 622 2452 0
2448 2452 2453 0
158 2448 2453 0
2455 2450 159 0
2454 623 2450 0
2454 2450 2455 0
624 2454 2455 0
2456 2453 623 0
2433 158 2453 0
2433 2453 2456 0
619 2433 2456 0
2457 2454 624 0
2456 623 2454 0
2456 2454 2457 0
619 2456 2457 0
2458 2457 624 0
2436 619 2457 0
2436 2457 2458 0
35 2436 2458 0
2460 2438 40 0
2459 621 2438 0
2459 2438 2460 0
626 2459 2460 0
2462 2443 621 0
2461 159 2443 0
2461 2443 2462 0
625 2461 2462 0
2463 2459 626 0
2462 621 2459 0
2462 2459 2463 0
625 2462 2463 0
2465 2463 626 0
2464 625 2463 0
2464 2463 2465 0
160 2464 2465 0
2467 2455 159 0
2466 624 2455 0
2466 2455 2467 0
627 2466 2467 0
2468 2458 624 0
2081 35 2458 0
2081 2458 2468 0
532 2081 2468 0
2469 2466 627 0
2468 624 2466 0
2468 2466 2469 0
532 2468 2469 0
2470 2469 627 0
2086 532 2469 0
2086 2469 2470 0
138 2086 2470 0
2472 2464 160 0
2471 625 2464 0
2471 2464 2472 0
628 2471 2472 0
2473 2461 625 0
2467 159 2461 0
2467 2461 2473 0
627 2467 2473 0
2474 2471 628 0
2473 625 2471 0
2473 2471 2474 0
627 2473 2474 0
2475 2474 628 0
2470 627 2474 0
2470 2474 2475 0
138 2470 2475 0
2477 2472 160 0
2476 628 2472 0
2476 2472 2477 0
629 2476 2477 0
2478 2475 628 0
2100 138 2475 0
2100 2475 2478 0
537 2100 2478 0
2479 2476 629 0
2478 628 2476 0
2478 2476 2479 0
537 2478 2479 0
2480 2479 629 0
2105 537 2479 0
2105 2479 2480 0
3 2105 2480 0
4675 539 4674 0
4676 2111 539 0
2481 140 2111 0
2481 2111 4676 0
4677 2481 4676 0
4676 539 4675 0
2483 2125 140 0
2482 544 2125 0
2482 2125 2483 0
631 2482 2483 0
2485 2130 544 0
2484 37 2130 0
2484 2130 2485 0
630 2484 2485 0
2486 2482 631 0
2485 544 2482 0
2485 2482 2486 0
630 2485 2486 0
2488 2486 631 0
2487 630 2486 0
2487 2486 2488 0
161 2487 2488 0
2489 2481 4677 0
2483 140 2481 0
2483 2481 2489 0
631 2483 2489 0
2490 4678 4679 0
2489 4677 4678 0
2489 4678 2490 0
631 2489 2490 0
2491 2490 4679 0
2488 631 2490 0
2488 2490 2491 0
161 2488 2491 0
4680 2491 4679 0
2492 161 2491 0
2492 2491 4680 0
4681 2492 4680 0
2494 2180 37 0
2493 558 2180 0
2493 2180 2494 0
633 2493 2494 0
2496 2185 558 0
2495 145 2185 0
2495 2185 2496 0
632 2495 2496 0
2497 2493 633 0
2496 558 2493 0
2496 2493 2497 0
632 2496 2497 0
2499 2497 633 0
2498 632 2497 0
2498 2497 2499 0
163 2498 2499 0
2501 2199 145 0
2500 563 2199 0
2500 2199 2501 0
635 2500 2501 0
2503 2204 563 0
2502 11 2204 0
2502 2204 2503 0
634 2502 2503 0
2504 2500 635 0
2503 563 2500 0
2503 2500 2504 0
634 2503 2504 0
2506 2504 635 0
2505 634 2504 0
2505 2504 2506 0
162 2505 2506 0
2508 2498 163 0
2507 632 2498 0
2507 2498 2508 0
636 2507 2508 0
2509 2495 632 0
2501 145 2495 0
2501 2495 2509 0
635 2501 2509 0
2510 2507 636 0
2509 632 2507 0
2509 2507 2510 0
635 2509 2510 0
2511 2510 636 0
2506 635 2510 0
2506 2510 2511 0
162 2506 2511 0
2513 2508 163 0
2512 636 2508 0
2512 2508 2513 0
638 2512 2513 0
2515 2511 636 0
2514 162 2511 0
2514 2511 2515 0
637 2514 2515 0
2516 2512 638 0
2515 636 2512 0
2515 2512 2516 0
637 2515 2516 0
2518 2516 638 0
2517 637 2516 0
2517 2516 2518 0
41 2517 2518 0
4682 2492 4681 0
2519 161 2492 0
2519 2492 4682 0
639 2519 4682 0
639 4682 4683 0
4684 639 4683 0
164 4684 4685 0
2521 2487 161 0
2520 630 2487 0
2520 2487 2521 0
640 2520 2521 0
2522 2484 630 0
2494 37 2484 0
2494 2484 2522 0
633 2494 2522 0
2523 2520 640 0
2522 630 2520 0
2522 2520 2523 0
633 2522 2523 0
2524 2523 640 0
2499 633 2523 0
2499 2523 2524 0
163 2499 2524 0
2526 4684 164 0
2525 639 4684 0
2525 4684 2526 0
641 2525 2526 0
2527 2519 639 0
2521 161 2519 0
2521 2519 2527 0
640 2521 2527 0
2528 2525 641 0
2527 639 2525 0
2527 2525 2528 0
640 2527 2528 0
2529 2528 641 0
2524 640 2528 0
2524 2528 2529 0
163 2524 2529 0
2531 2526 164 0
2530 641 2526 0
2530 2526 2531 0
642 2530 2531 0
2532 2529 641 0
2513 163 2529 0
2513 2529 2532 0
638 2513 2532 0
2533 2530 642 0
2532 641 2530 0
2532 2530 2533 0
638 2532 2533 0
2534 2533 642 0
2518 638 2533 0
2518 2533 2534 0
41 2518 2534 0
4686 164 4685 0
4687 2531 164 0
2535 642 2531 0
2535 2531 4687 0
4688 2535 4687 0
2537 2534 642 0
2536 41 2534 0
2536 2534 2537 0
643 2536 2537 0
2538 2535 4688 0
2537 642 2535 0
2537 2535 2538 0
643 2537 2538 0
4689 2538 4688 0
2539 643 2538 0
2539 2538 4689 0
4690 2539 4689 0
4687 164 4686 0
2541 2390 11 0
2540 609 2390 0
2540 2390 2541 0
645 2540 2541 0
2543 2395 609 0
2542 157 2395 0
2542 2395 2543 0
644 2542 2543 0
2544 2540 645 0
2543 609 2540 0
2543 2540 2544 0
644 2543 2544 0
2546 2544 645 0
2545 644 2544 0
2545 2544 2546 0
166 2545 2546 0
2548 2409 157 0
2547 614 2409 0
2547 2409 2548 0
647 2547 2548 0
2550 2414 614 0
2549 40 2414 0
2549 2414 2550 0
646 2549 2550 0
2551 2547 647 0
2550 614 2547 0
2550 2547 2551 0
646 2550 2551 0
2553 2551 647 0
2552 646 2551 0
2552 2551 2553 0
165 2552 2553 0
2555 2545 166 0
2554 644 2545 0
2554 2545 2555 0
648 2554 2555 0
2556 2542 644 0
2548 157 2542 0
2548 2542 2556 0
647 2548 2556 0
2557 2554 648 0
2556 644 2554 0
2556 2554 2557 0
647 2556 2557 0
2558 2557 648 0
2553 647 2557 0
2553 2557 2558 0
165 2553 2558 0
2560 2555 166 0
2559 648 2555 0
2559 2555 2560 0
650 2559 2560 0
2562 2558 648 0
2561 165 2558 0
2561 2558 2562 0
649 2561 2562 0
2563 2559 650 0
2562 648 2559 0
2562 2559 2563 0
649 2562 2563 0
2565 2563 650 0
2564 649 2563 0
2564 2563 2565 0
43 2564 2565 0
2567 2460 40 0
2566 626 2460 0
2566 2460 2567 0
652 2566 2567 0
2569 2465 626 0
2568 160 2465 0
2568 2465 2569 0
651 2568 2569 0
2570 2566 652 0
2569 626 2566 0
2569 2566 2570 0
651 2569 2570 0
2572 2570 652 0
2571 651 2570 0
2571 2570 2572 0
168 2571 2572 0
2574 2477 160 0
2573 629 2477 0
2573 2477 2574 0
654 2573 2574 0
2576 2480 629 0
2575 3 2480 0
2575 2480 2576 0
653 2575 2576 0
2577 2573 654 0
2576 629 2573 0
2576 2573 2577 0
653 2576 2577 0
2579 2577 654 0
2578 653 2577 0
2578 2577 2579 0
167 2578 2579 0
2581 2571 168 0
2580 651 2571 0
2580 2571 2581 0
655 2580 2581 0
2582 2568 651 0
2574 160 2568 0
2574 2568 2582 0
654 2574 2582 0
2583 2580 655 0
2582 651 2580 0
2582 2580 2583 0
654 2582 2583 0
2584 2583 655 0
2579 654 2583 0
2579 2583 2584 0
167 2579 2584 0
2586 2581 168 0
2585 655 2581 0
2585 2581 2586 0
657 2585 2586 0
2588 2584 655 0
2587 167 2584 0
2587 2584 2588 0
656 2587 2588 0
2589 2585 657 0
2588 655 2585 0
2588 2585 2589 0
656 2588 2589 0
2591 2589 657 0
2590 656 2589 0
2590 2589 2591 0
42 2590 2591 0
2593 2564 43 0
2592 649 2564 0
2592 2564 2593 0
659 2592 2593 0
2595 2561 649 0
2594 165 2561 0
2594 2561 2595 0
658 2594 2595 0
2596 2592 659 0
2595 649 2592 0
2595 2592 2596 0
658 2595 2596 0
2598 2596 659 0
2597 658 2596 0
2597 2596 2598 0
169 2597 2598 0
2600 2552 165 0
2599 646 2552 0
2599 2552 2600 0
660 2599 2600 0
2601 2549 646 0
2567 40 2549 0
2567 2549 2601 0
652 2567 2601 0
2602 2599 660 0
2601 646 2599 0
2601 2599 2602 0
652 2601 2602 0
2603 2602 660 0
2572 652 2602 0
2572 2602 2603 0
168 2572 2603 0
2605 2597 169 0
2604 658 2597 0
2604 2597 2605 0
661 2604 2605 0
2606 2594 658 0
2600 165 2594 0
2600 2594 2606 0
660 2600 2606 0
2607 2604 661 0
2606 658 2604 0
2606 2604 2607 0
660 2606 2607 0
2608 2607 661 0
2603 660 2607 0
2603 2607 2608 0
168 2603 2608 0
2610 2605 169 0
2609 661 2605 0
2609 2605 2610 0
662 2609 2610 0
2611 2608 661 0
2586 168 2608 0
2586 2608 2611 0
657 2586 2611 0
2612 2609 662 0
2611 661 2609 0
2611 2609 2612 0
657 2611 2612 0
2613 2612 662 0
2591 657 2612 0
2591 2612 2613 0
42 2591 2613 0
2615 2593 43 0
2614 659 2593 0
2614 2593 2615 0
664 2614 2615 0
2617 2598 659 0
2616 169 2598 0
2616 2598 2617 0
663 2616 2617 0
2618 2614 664 0
2617 659 2614 0
2617 2614 2618 0
663 2617 2618 0
2620 2618 664 0
2619 663 2618 0
2619 2618 2620 0
171 2619 2620 0
2622 2610 169 0
2621 662 2610 0
2621 2610 2622 0
666 2621 2622 0
2624 2613 662 0
2623 42 2613 0
2623 2613 2624 0
665 2623 2624 0
2625 2621 666 0
2624 662 2621 0
2624 2621 2625 0
665 2624 2625 0
2627 2625 666 0
2626 665 2625 0
2626 2625 2627 0
170 2626 2627 0
2629 2619 171 0
2628 663 2619 0
2628 2619 2629 0
667 2628 2629 0
2630 2616 663 0
2622 169 2616 0
2622 2616 2630 0
666 2622 2630 0
2631 2628 667 0
2630 663 2628 0
2630 2628 2631 0
666 2630 2631 0
2632 2631 667 0
2627 666 2631 0
2627 2631 2632 0
170 2627 2632 0
2634 2629 171 0
2633 667 2629 0
2633 2629 2634 0
669 2633 2634 0
2636 2632 667 0
2635 170 2632 0
2635 2632 2636 0
668 2635 2636 0
2637 2633 669 0
2636 667 2633 0
2636 2633 2637 0
668 2636 2637 0
2639 2637 669 0
2638 668 2637 0
2638 2637 2639 0
12 2638 2639 0
2641 2539 4690 0
2640 643 2539 0
2640 2539 2641 0
671 2640 2641 0
2643 2536 643 0
2642 41 2536 0
2642 2536 2643 0
670 2642 2643 0
2644 2640 671 0
2643 643 2640 0
2643 2640 2644 0
670 2643 2644 0
2646 2644 671 0
2645 670 2644 0
2645 2644 2646 0
172 2645 2646 0
672 4691 4692 0
2641 4690 4693 0
2641 4693 4694 0
671 2641 4694 0
2647 4691 672 0
4694 4691 2647 0
671 4694 2647 0
2648 2647 672 0
2646 671 2647 0
2646 2647 2648 0
172 2646 2648 0
4695 672 4692 0
2650 2648 672 0
2649 172 2648 0
2649 2648 2650 0
673 2649 2650 0
2651 4695 4696 0
2650 672 4695 0
2650 4695 2651 0
673 2650 2651 0
2653 2651 4696 0
2652 673 2651 0
2652 2651 2653 0
44 2652 2653 0
2655 2517 41 0
2654 637 2517 0
2654 2517 2655 0
675 2654 2655 0
2657 2514 637 0
2656 162 2514 0
2656 2514 2657 0
674 2656 2657 0
2658 2654 675 0
2657 637 2654 0
2657 2654 2658 0
674 2657 2658 0
2660 2658 675 0
2659 674 2658 0
2659 2658 2660 0
173 2659 2660 0
2662 2505 162 0
2661 634 2505 0
2661 2505 2662 0
676 2661 2662 0
2663 2502 634 0
2541 11 2502 0
2541 2502 2663 0
645 2541 2663 0
2664 2661 676 0
2663 634 2661 0
2663 2661 2664 0
645 2663 2664 0
2665 2664 676 0
2546 645 2664 0
2546 2664 2665 0
166 2546 2665 0
2667 2659 173 0
2666 674 2659 0
2666 2659 2667 0
677 2666 2667 0
2668 2656 674 0
2662 162 2656 0
2662 2656 2668 0
676 2662 2668 0
2669 2666 677 0
2668 674 2666 0
2668 2666 2669 0
676 2668 2669 0
2670 2669 677 0
2665 676 2669 0
2665 2669 2670 0
166 2665 2670 0
2672 2667 173 0
2671 677 2667 0
2671 2667 2672 0
678 2671 2672 0
2673 2670 677 0
2560 166 2670 0
2560 2670 2673 0
650 2560 2673 0
2674 2671 678 0
2673 677 2671 0
2673 2671 2674 0
650 2673 2674 0
2675 2674 678 0
2565 650 2674 0
2565 2674 2675 0
43 2565 2675 0
2677 2652 44 0
2676 673 2652 0
2676 2652 2677 0
680 2676 2677 0
2679 2649 673 0
2678 172 2649 0
2678 2649 2679 0
679 2678 2679 0
2680 2676 680 0
2679 673 2676 0
2679 2676 2680 0
679 2679 2680 0
2682 2680 680 0
2681 679 2680 0
2681 2680 2682 0
174 2681 2682 0
2684 2645 172 0
2683 670 2645 0
2683 2645 2684 0
681 2683 2684 0
2685 2642 670 0
2655 41 2642 0
2655 2642 2685 0
675 2655 2685 0
2686 2683 681 0
2685 670 2683 0
2685 2683 2686 0
675 2685 2686 0
2687 2686 681 0
2660 675 2686 0
2660 2686 2687 0
173 2660 2687 0
2689 2681 174 0
2688 679 2681 0
2688 2681 2689 0
682 2688 2689 0
2690 2678 679 0
2684 172 2678 0
2684 2678 2690 0
681 2684 2690 0
2691 2688 682 0
2690 679 2688 0
2690 2688 2691 0
681 2690 2691 0
2692 2691 682 0
2687 681 2691 0
2687 2691 2692 0
173 2687 2692 0
2694 2689 174 0
2693 682 2689 0
2693 2689 2694 0
683 2693 2694 0
2695 2692 682 0
2672 173 2692 0
2672 2692 2695 0
678 2672 2695 0
2696 2693 683 0
2695 682 2693 0
2695 2693 2696 0
678 2695 2696 0
2697 2696 683 0
2675 678 2696 0
2675 2696 2697 0
43 2675 2697 0
2699 2677 44 0
2698 680 2677 0
2698 2677 2699 0
685 2698 2699 0
2701 2682 680 0
2700 174 2682 0
2700 2682 2701 0
684 2700 2701 0
2702 2698 685 0
2701 680 2698 0
2701 2698 2702 0
684 2701 2702 0
2704 2702 685 0
2703 684 2702 0
2703 2702 2704 0
175 2703 2704 0
2706 2694 174 0
2705 683 2694 0
2705 2694 2706 0
686 2705 2706 0
2707 2697 683 0
2615 43 2697 0
2615 2697 2707 0
664 2615 2707 0
2708 2705 686 0
2707 683 2705 0
2707 2705 2708 0
664 2707 2708 0
2709 2708 686 0
2620 664 2708 0
2620 2708 2709 0
171 2620 2709 0
2711 2703 175 0
2710 684 2703 0
2710 2703 2711 0
687 2710 2711 0
2712 2700 684 0
2706 174 2700 0
2706 2700 2712 0
686 2706 2712 0
2713 2710 687 0
2712 684 2710 0
2712 2710 2713 0
686 2712 2713 0
2714 2713 687 0
2709 686 2713 0
2709 2713 2714 0
171 2709 2714 0
2716 2711 175 0
2715 687 2711 0
2715 2711 2716 0
688 2715 2716 0
2717 2714 687 0
2634 171 2714 0
2634 2714 2717 0
669 2634 2717 0
2718 2715 688 0
2717 687 2715 0
2717 2715 2718 0
669 2717 2718 0
2719 2718 688 0
2639 669 2718 0
2639 2718 2719 0
12 2639 2719 0
4697 2653 4696 0
4698 44 2653 0
4698 2653 4697 0
2721 2699 44 0
2720 685 2699 0
2720 2699 2721 0
690 2720 2721 0
2723 2704 685 0
2722 175 2704 0
2722 2704 2723 0
689 2722 2723 0
2724 2720 690 0
2723 685 2720 0
2723 2720 2724 0
689 2723 2724 0
4699 2724 690 0
2725 689 2724 0
2725 2724 4699 0
4700 2725 4699 0
2727 2716 175 0
2726 688 2716 0
2726 2716 2727 0
692 2726 2727 0
2729 2719 688 0
2728 12 2719 0
2728 2719 2729 0
691 2728 2729 0
2730 2726 692 0
2729 688 2726 0
2729 2726 2730 0
691 2729 2730 0
2732 2730 692 0
2731 691 2730 0
2731 2730 2732 0
176 2731 2732 0
4701 2725 4700 0
2733 689 2725 0
2733 2725 4701 0
693 2733 4701 0
2734 2722 689 0
2727 175 2722 0
2727 2722 2734 0
692 2727 2734 0
2735 2733 693 0
2734 689 2733 0
2734 2733 2735 0
692 2734 2735 0
2736 2735 693 0
2732 692 2735 0
2732 2735 2736 0
176 2732 2736 0
4702 693 4701 0
4703 2736 693 0
2737 176 2736 0
2737 2736 4703 0
4704 2737 4703 0
4703 693 4702 0
2721 44 4698 0
2721 4698 4705 0
690 2721 4705 0
690 4705 4706 0
4699 690 4706 0
2739 2737 4704 0
2738 176 2737 0
2738 2737 2739 0
694 2738 2739 0
2740 4707 4708 0
2739 4704 4707 0
2739 4707 2740 0
694 2739 2740 0
4709 2740 4708 0
2741 694 2740 0
2741 2740 4709 0
178 2741 4709 0
2743 2731 176 0
2742 691 2731 0
2742 2731 2743 0
696 2742 2743 0
2745 2728 691 0
2744 12 2728 0
2744 2728 2745 0
695 2744 2745 0
2746 2742 696 0
2745 691 2742 0
2745 2742 2746 0
695 2745 2746 0
2748 2746 696 0
2747 695 2746 0
2747 2746 2748 0
177 2747 2748 0
2750 2741 178 0
2749 694 2741 0
2749 2741 2750 0
697 2749 2750 0
2751 2738 694 0
2743 176 2738 0
2743 2738 2751 0
696 2743 2751 0
2752 2749 697 0
2751 694 2749 0
2751 2749 2752 0
696 2751 2752 0
2753 2752 697 0
2748 696 2752 0
2748 2752 2753 0
177 2748 2753 0
2755 2750 178 0
2754 697 2750 0
2754 2750 2755 0
699 2754 2755 0
2757 2753 697 0
2756 177 2753 0
2756 2753 2757 0
698 2756 2757 0
2758 2754 699 0
2757 697 2754 0
2757 2754 2758 0
698 2757 2758 0
2760 2758 699 0
2759 698 2758 0
2759 2758 2760 0
45 2759 2760 0
178 4709 4710 0
2761 4711 4712 0
4710 4711 2761 0
178 4710 2761 0
2762 4712 4713 0
2762 4713 4714 0
700 2762 4714 0
2763 2761 4712 0
2755 178 2761 0
2755 2761 2763 0
699 2755 2763 0
2764 2762 700 0
2763 4712 2762 0
2763 2762 2764 0
699 2763 2764 0
2765 2764 700 0
2760 699 2764 0
2760 2764 2765 0
45 2760 2765 0
2766 700 4714 0
2766 4714 4715 0
702 2766 4715 0
2768 2765 700 0
2767 45 2765 0
2767 2765 2768 0
701 2767 2768 0
2769 2766 702 0
2768 700 2766 0
2768 2766 2769 0
701 2768 2769 0
2771 2769 702 0
2770 701 2769 0
2770 2769 2771 0
179 2770 2771 0
702 4715 4716 0
702 4716 4717 0
2772 4717 4718 0
2771 702 4717 0
2771 4717 2772 0
179 2771 2772 0
2774 2772 4718 0
2773 179 2772 0
2773 2772 2774 0
703 2773 2774 0
2774 4718 4719 0
2774 4719 4720 0
703 2774 4720 0
2775 703 4720 0
2775 4720 4721 0
14 2775 4721 0
2777 2638 12 0
2776 668 2638 0
2776 2638 2777 0
705 2776 2777 0
2779 2635 668 0
2778 170 2635 0
2778 2635 2779 0
704 2778 2779 0
2780 2776 705 0
2779 668 2776 0
2779 2776 2780 0
704 2779 2780 0
2782 2780 705 0
2781 704 2780 0
2781 2780 2782 0
181 2781 2782 0
2784 2626 170 0
2783 665 2626 0
2783 2626 2784 0
707 2783 2784 0
2786 2623 665 0
2785 42 2623 0
2785 2623 2786 0
706 2785 2786 0
2787 2783 707 0
2786 665 2783 0
2786 2783 2787 0
706 2786 2787 0
2789 2787 707 0
2788 706 2787 0
2788 2787 2789 0
180 2788 2789 0
2791 2781 181 0
2790 704 2781 0
2790 2781 2791 0
708 2790 2791 0
2792 2778 704 0
2784 170 2778 0
2784 2778 2792 0
707 2784 2792 0
2793 2790 708 0
2792 704 2790 0
2792 2790 2793 0
707 2792 2793 0
2794 2793 708 0
2789 707 2793 0
2789 2793 2794 0
180 2789 2794 0
2796 2791 181 0
2795 708 2791 0
2795 2791 2796 0
710 2795 2796 0
2798 2794 708 0
2797 180 2794 0
2797 2794 2798 0
709 2797 2798 0
2799 2795 710 0
2798 708 2795 0
2798 2795 2799 0
709 2798 2799 0
2801 2799 710 0
2800 709 2799 0
2800 2799 2801 0
47 2800 2801 0
2803 2590 42 0
2802 656 2590 0
2802 2590 2803 0
712 2802 2803 0
2805 2587 656 0
2804 167 2587 0
2804 2587 2805 0
711 2804 2805 0
2806 2802 712 0
2805 656 2802 0
2805 2802 2806 0
711 2805 2806 0
2808 2806 712 0
2807 711 2806 0
2807 2806 2808 0
183 2807 2808 0
2810 2578 167 0
2809 653 2578 0
2809 2578 2810 0
714 2809 2810 0
2812 2575 653 0
2811 3 2575 0
2811 2575 2812 0
713 2811 2812 0
2813 2809 714 0
2812 653 2809 0
2812 2809 2813 0
713 2812 2813 0
2815 2813 714 0
2814 713 2813 0
2814 2813 2815 0
182 2814 2815 0
2817 2807 183 0
2816 711 2807 0
2816 2807 2817 0
715 2816 2817 0
2818 2804 711 0
2810 167 2804 0
2810 2804 2818 0
714 2810 2818 0
2819 2816 715 0
2818 711 2816 0
2818 2816 2819 0
714 2818 2819 0
2820 2819 715 0
2815 714 2819 0
2815 2819 2820 0
182 2815 2820 0
2822 2817 183 0
2821 715 2817 0
2821 2817 2822 0
717 2821 2822 0
2824 2820 715 0
2823 182 2820 0
2823 2820 2824 0
716 2823 2824 0
2825 2821 717 0
2824 715 2821 0
2824 2821 2825 0
716 2824 2825 0
2827 2825 717 0
2826 716 2825 0
2826 2825 2827 0
46 2826 2827 0
2829 2800 47 0
2828 709 2800 0
2828 2800 2829 0
719 2828 2829 0
2831 2797 709 0
2830 180 2797 0
2830 2797 2831 0
718 2830 2831 0
2832 2828 719 0
2831 709 2828 0
2831 2828 2832 0
718 2831 2832 0
2834 2832 719 0
2833 718 2832 0
2833 2832 2834 0
184 2833 2834 0
2836 2788 180 0
2835 706 2788 0
2835 2788 2836 0
720 2835 2836 0
2837 2785 706 0
2803 42 2785 0
2803 2785 2837 0
712 2803 2837 0
2838 2835 720 0
2837 706 2835 0
2837 2835 2838 0
712 2837 2838 0
2839 2838 720 0
2808 712 2838 0
2808 2838 2839 0
183 2808 2839 0
2841 2833 184 0
2840 718 2833 0
2840 2833 2841 0
721 2840 2841 0
2842 2830 718 0
2836 180 2830 0
2836 2830 2842 0
720 2836 2842 0
2843 2840 721 0
2842 718 2840 0
2842 2840 2843 0
720 2842 2843 0
2844 2843 721 0
2839 720 2843 0
2839 2843 2844 0
183 2839 2844 0
2846 2841 184 0
2845 721 2841 0
2845 2841 2846 0
722 2845 2846 0
2847 2844 721 0
2822 183 2844 0
2822 2844 2847 0
717 2822 2847 0
2848 2845 722 0
2847 721 2845 0
2847 2845 2848 0
717 2847 2848 0
2849 2848 722 0
2827 717 2848 0
2827 2848 2849 0
46 2827 2849 0
2851 2829 47 0
2850 719 2829 0
2850 2829 2851 0
724 2850 2851 0
2853 2834 719 0
2852 184 2834 0
2852 2834 2853 0
723 2852 2853 0
2854 2850 724 0
2853 719 2850 0
2853 2850 2854 0
723 2853 2854 0
2856 2854 724 0
2855 723 2854 0
2855 2854 2856 0
186 2855 2856 0
2858 2846 184 0
2857 722 2846 0
2857 2846 2858 0
726 2857 2858 0
2860 2849 722 0
2859 46 2849 0
2859 2849 2860 0
725 2859 2860 0
2861 2857 726 0
2860 722 2857 0
2860 2857 2861 0
725 2860 2861 0
2863 2861 726 0
2862 725 2861 0
2862 2861 2863 0
185 2862 2863 0
2865 2855 186 0
2864 723 2855 0
2864 2855 2865 0
727 2864 2865 0
2866 2852 723 0
2858 184 2852 0
2858 2852 2866 0
726 2858 2866 0
2867 2864 727 0
2866 723 2864 0
2866 2864 2867 0
726 2866 2867 0
2868 2867 727 0
2863 726 2867 0
2863 2867 2868 0
185 2863 2868 0
2870 2865 186 0
2869 727 2865 0
2869 2865 2870 0
729 2869 2870 0
2872 2868 727 0
2871 185 2868 0
2871 2868 2872 0
728 2871 2872 0
2873 2869 729 0
2872 727 2869 0
2872 2869 2873 0
728 2872 2873 0
2875 2873 729 0
2874 728 2873 0
2874 2873 2875 0
13 2874 2875 0
2877 2775 14 0
2876 703 2775 0
2876 2775 2877 0
731 2876 2877 0
2879 2773 703 0
2878 179 2773 0
2878 2773 2879 0
730 2878 2879 0
2880 2876 731 0
2879 703 2876 0
2879 2876 2880 0
730 2879 2880 0
2882 2880 731 0
2881 730 2880 0
2881 2880 2882 0
188 2881 2882 0
2884 2770 179 0
2883 701 2770 0
2883 2770 2884 0
733 2883 2884 0
2886 2767 701 0
2885 45 2767 0
2885 2767 2886 0
732 2885 2886 0
2887 2883 733 0
2886 701 2883 0
2886 2883 2887 0
732 2886 2887 0
2889 2887 733 0
2888 732 2887 0
2888 2887 2889 0
187 2888 2889 0
2891 2881 188 0
2890 730 2881 0
2890 2881 2891 0
734 2890 2891 0
2892 2878 730 0
2884 179 2878 0
2884 2878 2892 0
733 2884 2892 0
2893 2890 734 0
2892 730 2890 0
2892 2890 2893 0
733 2892 2893 0
2894 2893 734 0
2889 733 2893 0
2889 2893 2894 0
187 2889 2894 0
2896 2891 188 0
2895 734 2891 0
2895 2891 2896 0
736 2895 2896 0
2898 2894 734 0
2897 187 2894 0
2897 2894 2898 0
735 2897 2898 0
2899 2895 736 0
2898 734 2895 0
2898 2895 2899 0
735 2898 2899 0
2901 2899 736 0
2900 735 2899 0
2900 2899 2901 0
48 2900 2901 0
2903 2759 45 0
2902 698 2759 0
2902 2759 2903 0
738 2902 2903 0
2905 2756 698 0
2904 177 2756 0
2904 2756 2905 0
737 2904 2905 0
2906 2902 738 0
2905 698 2902 0
2905 2902 2906 0
737 2905 2906 0
2908 2906 738 0
2907 737 2906 0
2907 2906 2908 0
189 2907 2908 0
2910 2747 177 0
2909 695 2747 0
2909 2747 2910 0
739 2909 2910 0
2911 2744 695 0
2777 12 2744 0
2777 2744 2911 0
705 2777 2911 0
2912 2909 739 0
2911 695 2909 0
2911 2909 2912 0
705 2911 2912 0
2913 2912 739 0
2782 705 2912 0
2782 2912 2913 0
181 2782 2913 0
2915 2907 189 0
2914 737 2907 0
2914 2907 2915 0
740 2914 2915 0
2916 2904 737 0
2910 177 2904 0
2910 2904 2916 0
739 2910 2916 0
2917 2914 740 0
2916 737 2914 0
2916 2914 2917 0
739 2916 2917 0
2918 2917 740 0
2913 739 2917 0
2913 2917 2918 0
181 2913 2918 0
2920 2915 189 0
2919 740 2915 0
2919 2915 2920 0
741 2919 2920 0
2921 2918 740 0
2796 181 2918 0
2796 2918 2921 0
710 2796 2921 0
2922 2919 741 0
2921 740 2919 0
2921 2919 2922 0
710 2921 2922 0
2923 2922 741 0
2801 710 2922 0
2801 2922 2923 0
47 2801 2923 0
2925 2900 48 0
2924 735 2900 0
2924 2900 2925 0
743 2924 2925 0
2927 2897 735 0
2926 187 2897 0
2926 2897 2927 0
742 2926 2927 0
2928 2924 743 0
2927 735 2924 0
2927 2924 2928 0
742 2927 2928 0
2930 2928 743 0
2929 742 2928 0
2929 2928 2930 0
190 2929 2930 0
2932 2888 187 0
2931 732 2888 0
2931 2888 2932 0
744 2931 2932 0
2933 2885 732 0
2903 45 2885 0
2903 2885 2933 0
738 2903 2933 0
2934 2931 744 0
2933 732 2931 0
2933 2931 2934 0
738 2933 2934 0
2935 2934 744 0
2908 738 2934 0
2908 2934 2935 0
189 2908 2935 0
2937 2929 190 0
2936 742 2929 0
2936 2929 2937 0
745 2936 2937 0
2938 2926 742 0
2932 187 2926 0
2932 2926 2938 0
744 2932 2938 0
2939 2936 745 0
2938 742 2936 0
2938 2936 2939 0
744 2938 2939 0
2940 2939 745 0
2935 744 2939 0
2935 2939 2940 0
189 2935 2940 0
2942 2937 190 0
2941 745 2937 0
2941 2937 2942 0
746 2941 2942 0
2943 2940 745 0
2920 189 2940 0
2920 2940 2943 0
741 2920 2943 0
2944 2941 746 0
2943 745 2941 0
2943 2941 2944 0
741 2943 2944 0
2945 2944 746 0
2923 741 2944 0
2923 2944 2945 0
47 2923 2945 0
2947 2925 48 0
2946 743 2925 0
2946 2925 2947 0
748 2946 2947 0
2949 2930 743 0
2948 190 2930 0
2948 2930 2949 0
747 2948 2949 0
2950 2946 748 0
2949 743 2946 0
2949 2946 2950 0
747 2949 2950 0
2952 2950 748 0
2951 747 2950 0
2951 2950 2952 0
191 2951 2952 0
2954 2942 190 0
2953 746 2942 0
2953 2942 2954 0
749 2953 2954 0
2955 2945 746 0
2851 47 2945 0
2851 2945 2955 0
724 2851 2955 0
2956 2953 749 0
2955 746 2953 0
2955 2953 2956 0
724 2955 2956 0
2957 2956 749 0
2856 724 2956 0
2856 2956 2957 0
186 2856 2957 0
2959 2951 191 0
2958 747 2951 0
2958 2951 2959 0
750 2958 2959 0
2960 2948 747 0
2954 190 2948 0
2954 2948 2960 0
749 2954 2960 0
2961 2958 750 0
2960 747 2958 0
2960 2958 2961 0
749 2960 2961 0
2962 2961 750 0
2957 749 2961 0
2957 2961 2962 0
186 2957 2962 0
2964 2959 191 0
2963 750 2959 0
2963 2959 2964 0
751 2963 2964 0
2965 2962 750 0
2870 186 2962 0
2870 2962 2965 0
729 2870 2965 0
2966 2963 751 0
2965 750 2963 0
2965 2963 2966 0
729 2965 2966 0
2967 2966 751 0
2875 729 2966 0
2875 2966 2967 0
13 2875 2967 0
2969 2877 14 0
2968 731 2877 0
2968 2877 2969 0
753 2968 2969 0
2971 2882 731 0
2970 188 2882 0
2970 2882 2971 0
752 2970 2971 0
2972 2968 753 0
2971 731 2968 0
2971 2968 2972 0
752 2971 2972 0
2974 2972 753 0
2973 752 2972 0
2973 2972 2974 0
193 2973 2974 0
2976 2896 188 0
2975 736 2896 0
2975 2896 2976 0
755 2975 2976 0
2978 2901 736 0
2977 48 2901 0
2977 2901 2978 0
754 2977 2978 0
2979 2975 755 0
2978 736 2975 0
2978 2975 2979 0
754 2978 2979 0
2981 2979 755 0
2980 754 2979 0
2980 2979 2981 0
192 2980 2981 0
2983 2973 193 0
2982 752 2973 0
2982 2973 2983 0
756 2982 2983 0
2984 2970 752 0
2976 188 2970 0
2976 2970 2984 0
755 2976 2984 0
2985 2982 756 0
2984 752 2982 0
2984 2982 2985 0
755 2984 2985 0
2986 2985 756 0
2981 755 2985 0
2981 2985 2986 0
192 2981 2986 0
2988 2983 193 0
2987 756 2983 0
2987 2983 2988 0
758 2987 2988 0
2990 2986 756 0
2989 192 2986 0
2989 2986 2990 0
757 2989 2990 0
2991 2987 758 0
2990 756 2987 0
2990 2987 2991 0
757 2990 2991 0
2993 2991 758 0
2992 757 2991 0
2992 2991 2993 0
50 2992 2993 0
2995 2947 48 0
2994 748 2947 0
2994 2947 2995 0
760 2994 2995 0
2997 2952 748 0
2996 191 2952 0
2996 2952 2997 0
759 2996 2997 0
2998 2994 760 0
2997 748 2994 0
2997 2994 2998 0
759 2997 2998 0
3000 2998 760 0
2999 759 2998 0
2999 2998 3000 0
195 2999 3000 0
3002 2964 191 0
3001 751 2964 0
3001 2964 3002 0
762 3001 3002 0
3004 2967 751 0
3003 13 2967 0
3003 2967 3004 0
761 3003 3004 0
3005 3001 762 0
3004 751 3001 0
3004 3001 3005 0
761 3004 3005 0
3007 3005 762 0
3006 761 3005 0
3006 3005 3007 0
194 3006 3007 0
3009 2999 195 0
3008 759 2999 0
3008 2999 3009 0
763 3008 3009 0
3010 2996 759 0
3002 191 2996 0
3002 2996 3010 0
762 3002 3010 0
3011 3008 763 0
3010 759 3008 0
3010 3008 3011 0
762 3010 3011 0
3012 3011 763 0
3007 762 3011 0
3007 3011 3012 0
194 3007 3012 0
3014 3009 195 0
3013 763 3009 0
3013 3009 3014 0
765 3013 3014 0
3016 3012 763 0
3015 194 3012 0
3015 3012 3016 0
764 3015 3016 0
3017 3013 765 0
3016 763 3013 0
3016 3013 3017 0
764 3016 3017 0
3019 3017 765 0
3018 764 3017 0
3018 3017 3019 0
49 3018 3019 0
3021 2992 50 0
3020 757 2992 0
3020 2992 3021 0
767 3020 3021 0
3023 2989 757 0
3022 192 2989 0
3022 2989 3023 0
766 3022 3023 0
3024 3020 767 0
3023 757 3020 0
3023 3020 3024 0
766 3023 3024 0
3026 3024 767 0
3025 766 3024 0
3025 3024 3026 0
196 3025 3026 0
3028 2980 192 0
3027 754 2980 0
3027 2980 3028 0
768 3027 3028 0
3029 2977 754 0
2995 48 2977 0
2995 2977 3029 0
760 2995 3029 0
3030 3027 768 0
3029 754 3027 0
3029 3027 3030 0
760 3029 3030 0
3031 3030 768 0
3000 760 3030 0
3000 3030 3031 0
195 3000 3031 0
3033 3025 196 0
3032 766 3025 0
3032 3025 3033 0
769 3032 3033 0
3034 3022 766 0
3028 192 3022 0
3028 3022 3034 0
768 3028 3034 0
3035 3032 769 0
3034 766 3032 0
3034 3032 3035 0
768 3034 3035 0
3036 3035 769 0
3031 768 3035 0
