#!ascii - generated by CreateLabelFiles project 
2563 4915
-11.6719 61.0631 -35.9855 0
-12.517 61.2595 -37.3012 0
-13.9109 60.0659 -39.9906 0
-13.2657 59.8175 -39.3027 0
-13.9766 61.3692 -40.5249 0
-13.3193 60.9015 -38.7434 0
-12.2583 59.7261 -36.6786 0
-12.4061 59.1248 -37.1101 0
-12.538 59.0971 -38.5717 0
-11.1205 58.3827 -34.281 0
-11.8488 58.8809 -35.6209 0
-11.8584 58.224 -34.1981 0
-12.3534 57.4045 -32.059 0
-12.7682 57.8912 -33.0484 0
-10.1394 72.1496 -36.3 0
-11.5389 72.9589 -36.168 0
-8.75323 71.2042 -36.5327 0
-8.82558 70.0934 -34.97 0
-9.3539 68.7329 -34.2347 0
-10.4008 57.5615 -33.1631 0
-10.8474 57.2588 -31.9065 0
-10.79 60.5801 -34.7264 0
-10.5424 58.8132 -34.2807 0
-10.353 64.244 -36.2159 0
-10.5416 62.3729 -35.3617 0
-9.79795 58.9877 -33.282 0
-11.7311 66.8072 -36.9032 0
-10.6944 65.7428 -36.9144 0
-13.3838 68.4658 -36.3138 0
-12.9994 67.5362 -36.5011 0
-10.4952 66.2304 -34.7634 0
-9.24201 64.3169 -32.7148 0
-8.83396 62.8417 -32.2341 0
-12.4451 70.5205 -35.6935 0
-12.983 69.5607 -36.0373 0
-12.0783 71.6808 -35.5299 0
-11.0611 69.7153 -34.5856 0
-9.66498 67.6878 -33.9394 0
-9.58943 65.5401 -33.2504 0
-11.4299 67.8562 -35.0237 0
-9.74552 66.6753 -33.5423 0
-8.24576 59.0454 -31.7139 0
-10.1297 63.6031 -33.8969 0
-8.61932 61.1051 -31.954 0
-8.07522 56.6018 -47.3399 0
-7.12237 56.2928 -47.7008 0
-9.73938 56.4277 -46.1213 0
-8.91038 56.5599 -46.8072 0
-8.29496 55.2458 -46.2758 0
-8.56361 53.8802 -45.1448 0
-7.89339 53.836 -45.9223 0
-10.9519 56.6398 -44.4487 0
-10.3496 56.5366 -45.2648 0
-12.4615 56.2423 -42.6245 0
-11.8047 56.4087 -43.4703 0
-10.9473 55.2713 -42.9866 0
-10.0543 54.4957 -41.7482 0
-9.90565 54.1997 -42.422 0
-9.10031 53.9631 -44.1242 0
-8.77362 52.7543 -43.1822 0
-9.68857 55.4321 -44.6925 0
-9.67951 53.9298 -43.2022 0
-8.84193 53.4766 -41.5513 0
-8.33619 52.3417 -41.564 0
-8.44897 51.9382 -42.4484 0
-7.65981 53.2828 -40.1898 0
-8.03875 52.7914 -40.838 0
-7.56135 51.8215 -40.3049 0
-7.66946 50.8816 -39.8001 0
-11.3689 57.5574 -42.0208 0
-11.91 56.7749 -42.4279 0
-11.4336 58.6607 -40.3689 0
-11.1486 58.4182 -41.2894 0
-10.4209 57.0786 -40.7352 0
-10.0816 56.4102 -39.2247 0
-9.94976 55.9757 -39.8082 0
-12.1474 58.0045 -37.2379 0
-11.8449 58.4558 -39.1546 0
-12.8615 57.7116 -34.5616 0
-12.8151 56.9981 -35.921 0
-10.5088 56.6311 -38.6865 0
-9.85295 55.7357 -37.8765 0
-11.015 57.5613 -39.1243 0
-11.3482 56.5962 -38.0233 0
-9.24495 54.6943 -37.2315 0
-7.27692 51.4887 -38.4819 0
-7.53527 53.7769 -39.5609 0
-7.36718 52.4996 -39.1684 0
-7.50916 51.9497 -37.8397 0
-7.90205 52.3702 -37.2756 0
-10.1201 54.8705 -41.0763 0
-8.69523 54.4734 -40.2357 0
-10.9127 55.7489 -41.9122 0
-10.0276 55.4214 -40.436 0
-9.0436 55.2308 -39.0094 0
-7.96064 53.1614 -38.0141 0
-8.31707 52.7526 -36.6876 0
-7.99522 53.9779 -39.0222 0
-8.4048 54.1823 -38.4417 0
-8.80814 54.4348 -37.8433 0
-8.99786 53.6687 -36.6726 0
6.6362 53.2963 -35.1196 0
6.93739 53.9515 -34.9335 0
6.29197 52.6543 -35.6866 0
4.53758 53.1597 -39.6882 0
2.95078 53.6006 -41.7412 0
3.73333 53.2733 -40.7139 0
1.10788 54.7475 -44.3397 0
1.98228 53.9614 -43.0266 0
-1.143 56.2838 -46.8405 0
0.204346 55.6372 -45.5977 0
-4.41014 56.6207 -48.0003 0
-2.82897 56.6065 -47.9543 0
-1.0049 55.0639 -47.8772 0
-0.752334 53.9047 -48.5216 0
1.637 53.8539 -45.5784 0
-6.83992 55.1282 -48.177 0
-6.06322 56.1492 -47.9706 0
-8.16001 52.2606 -45.5541 0
-7.29822 53.777 -46.7646 0
-6.47208 53.9017 -47.6029 0
-6.74744 52.2694 -46.9372 0
-5.18851 54.5143 -47.6197 0
-8.57671 51.0612 -41.7312 0
-8.41642 51.5095 -43.4574 0
-8.19057 50.5358 -40.4825 0
-8.49368 50.0535 -41.2433 0
-8.30941 49.4928 -42.3513 0
-7.75523 50.6325 -45.5074 0
-8.11967 51.0735 -44.5695 0
-2.47368 54.2075 -48.2511 0
-4.37329 55.8023 -47.9629 0
-3.99027 55.5817 -47.2955 0
-3.55071 56.0663 -45.6528 0
4.93015 63.325 -36.7717 0
4.48619 63.6886 -37.3757 0
3.60116 64.2219 -36.8705 0
4.45053 64.0857 -38.1968 0
4.78134 63.7456 -38.4955 0
3.50179 64.9411 -37.6517 0
3.97404 64.4803 -37.9323 0
4.41647 64.8017 -38.9536 0
4.40222 65.5423 -39.6568 0
4.85885 65.0383 -39.9382 0
3.0135 65.2586 -37.3222 0
2.63818 67.3891 -38.0716 0
3.16495 66.9772 -38.4432 0
4.1246 66.1293 -39.2043 0
4.58878 66.228 -40.1357 0
3.57568 65.76 -38.263 0
3.74368 66.6482 -38.7695 0
3.8216 67.2763 -39.239 0
4.73831 66.7827 -40.5452 0
5.00173 66.1277 -41.0553 0
3.8812 67.809 -39.6614 0
4.44962 67.3883 -39.9664 0
4.79752 67.2937 -40.9426 0
4.50351 67.6295 -41.4992 0
5.01332 67.1468 -42.0665 0
5.20164 63.3476 -37.9247 0
5.08002 63.3791 -38.8242 0
5.70949 63.6266 -43.3266 0
5.96833 63.0551 -43.8793 0
5.73925 63.9584 -40.5207 0
5.21404 63.9217 -39.5125 0
5.318 64.504 -40.1969 0
5.22507 64.9565 -40.8264 0
5.68042 64.1976 -42.4909 0
5.42643 64.4505 -42.9716 0
6.0498 63.9784 -41.9723 0
5.57387 64.6893 -41.6656 0
5.22231 65.3798 -41.3707 0
5.22305 65.293 -42.6239 0
5.24163 64.6708 -43.5217 0
5.20069 65.788 -41.8409 0
5.12154 66.2221 -42.381 0
5.08593 66.7096 -42.9089 0
5.70838 63.1488 -44.5977 0
5.85111 61.8532 -44.6395 0
5.06078 64.834 -43.8613 0
5.23912 63.9057 -44.6257 0
4.71302 66.8021 -43.1438 0
4.96369 65.8665 -43.3174 0
4.82348 64.9455 -43.9668 0
4.16741 64.7095 -43.9762 0
4.55372 63.9962 -44.6133 0
5.27972 62.5017 -45.0734 0
5.34664 62.0778 -44.3361 0
5.27039 63.1783 -45.0931 0
4.86506 63.2223 -44.9877 0
4.46003 63.3838 -44.4949 0
4.91867 62.2931 -43.897 0
5.46743 61.7107 -43.5089 0
4.07611 63.5164 -44.0684 0
4.48517 62.9226 -43.971 0
4.54042 62.5284 -43.3844 0
4.21076 62.7803 -42.7736 0
4.61703 62.1214 -42.5785 0
5.57753 60.8546 -42.0029 0
5.62938 60.4197 -41.2247 0
5.56733 61.2868 -42.7263 0
5.08145 61.4043 -42.2995 0
4.70805 61.6067 -41.7446 0
5.40613 60.6218 -40.5523 0
4.35544 61.7403 -41.1663 0
4.7893 60.9904 -40.9226 0
5.03783 60.6397 -39.9667 0
4.69329 60.5438 -39.3721 0
5.33762 60.1389 -38.9715 0
7.03358 58.5043 -37.3271 0
6.0274 59.7516 -38.5675 0
5.69413 59.5834 -37.9436 0
6.62413 58.2023 -36.9336 0
7.27098 57.5002 -36.7925 0
5.33787 59.3448 -37.4672 0
6.01306 58.898 -37.1101 0
6.26455 57.9572 -36.5272 0
5.92656 57.6829 -36.1464 0
6.50971 56.902 -36.0676 0
-3.82974 74.4357 -36.5843 0
-4.17507 74.8111 -37.2513 0
-4.43784 74.0955 -37.2717 0
-3.8628 75.6251 -37.2771 0
-4.44061 75.1008 -37.8907 0
-3.57049 76.4748 -37.1973 0
-3.34789 77.1065 -36.9012 0
-3.95501 76.6819 -37.5688 0
-3.38702 77.1286 -36.2376 0
-4.27863 77.1159 -36.1675 0
-4.75715 75.8226 -38.4765 0
-4.71628 74.8604 -38.683 0
-4.25865 77.2411 -37.9898 0
-4.57559 76.6789 -38.2848 0
-5.16395 76.6832 -38.991 0
-5.43913 77.1579 -39.2613 0
-5.47775 76.3459 -39.6406 0
-4.5176 76.9673 -36.3847 0
-4.2905 77.3095 -37.2841 0
-4.57605 76.4107 -36.637 0
-4.84375 75.8969 -36.6463 0
-4.90207 76.7989 -37.3279 0
-5.03349 77.345 -38.8052 0
-5.65491 77.2392 -39.1745 0
-4.4307 77.4285 -38.2834 0
-4.72996 77.4707 -38.2663 0
-5.28316 77.2004 -37.9043 0
-6.00467 77.2502 -38.9684 0
-6.17614 76.9642 -39.5747 0
-5.73234 76.6935 -37.7985 0
-5.84265 77.1827 -38.3086 0
-6.4392 76.713 -38.5301 0
-7.05769 76.2969 -38.4295 0
-7.09305 76.2306 -38.7535 0
-6.97623 76.4044 -38.09 0
-7.65696 76.0042 -38.2006 0
-5.6152 75.6959 -37.2376 0
-6.28149 76.1451 -37.7109 0
-6.76673 75.6159 -37.8105 0
-6.54064 74.6591 -37.4594 0
-7.26368 74.9218 -37.7742 0
-5.05638 75.2701 -36.7078 0
-5.95009 74.365 -36.9426 0
-6.25319 73.9046 -37.2766 0
-5.46055 74.7938 -36.819 0
-5.49367 74.0731 -36.2369 0
-6.03075 73.0914 -36.9771 0
-6.62551 73.5207 -37.5589 0
-8.18568 75.4311 -38.1993 0
-8.35806 75.5892 -38.319 0
-7.62956 74.6325 -38.0503 0
-8.00039 75.2129 -38.0884 0
-8.80013 75.4603 -38.0289 0
-9.45887 75.8062 -37.6218 0
-9.65021 75.6162 -37.9962 0
-7.29732 73.225 -37.7361 0
-7.27611 74.0047 -37.9978 0
-7.32171 72.4285 -37.5396 0
-8.04167 72.9214 -37.4152 0
-8.69933 72.4078 -37.3262 0
-8.78452 73.4413 -37.2965 0
-9.21741 75.4975 -37.422 0
-10.113 75.7431 -37.3659 0
-8.22716 74.7462 -37.7309 0
-8.96999 74.4709 -37.3611 0
-9.62249 73.9713 -37.2458 0
-10.7894 75.3481 -37.1928 0
-11.0525 75.5196 -37.5002 0
-10.3392 73.4761 -37.2231 0
-10.5336 74.5189 -37.1543 0
-11.3772 74.9507 -37.0188 0
-11.7995 74.499 -36.685 0
-12.5476 74.8802 -37.5245 0
5.31587 58.3853 -36.2786 0
5.62414 57.3471 -35.7505 0
4.67166 59.8688 -37.8633 0
4.98557 59.1316 -37.0252 0
4.63418 58.9603 -36.5533 0
3.92757 59.5048 -36.9873 0
4.3164 58.6926 -36.1715 0
4.04639 60.9732 -39.8573 0
4.35725 60.4914 -38.8524 0
3.8832 62.2647 -41.5405 0
3.90989 61.5411 -40.7444 0
3.4555 61.2519 -40.3751 0
2.84662 61.6093 -40.8651 0
3.05668 61.159 -39.952 0
3.61947 60.2386 -37.9598 0
3.18585 60.0604 -37.5123 0
4.00843 60.4279 -38.3846 0
3.30497 60.8022 -38.9686 0
2.53939 60.9554 -39.6254 0
2.40137 60.3497 -38.1721 0
2.79225 59.8718 -37.1222 0
1.85992 61.4148 -40.0887 0
2.061 60.7384 -39.2574 0
1.58924 60.5447 -38.904 0
0.966722 61.1535 -39.2859 0
1.11622 60.3616 -38.5271 0
3.7305 63.264 -43.0136 0
3.82619 62.9155 -42.292 0
3.58596 64.0544 -43.7264 0
3.6383 63.5873 -43.6487 0
3.13103 63.6237 -43.2368 0
2.45482 63.9361 -43.3358 0
2.60335 63.616 -42.9198 0
3.8113 65.5091 -43.621 0
3.5792 64.5816 -43.7457 0
4.16907 67.3785 -42.7431 0
4.19913 66.741 -43.4214 0
3.35103 66.3012 -43.5926 0
2.69508 66.817 -43.3286 0
2.52799 65.8435 -43.717 0
2.34793 64.3301 -43.7141 0
1.72099 64.3469 -43.5666 0
2.94373 64.4112 -43.7082 0
2.42072 65.0244 -43.7181 0
1.76122 65.6242 -43.8522 0
1.05784 64.9504 -43.6837 0
1.09732 64.3508 -43.4 0
1.08406 65.974 -43.8371 0
1.0286 65.5063 -43.9651 0
0.314773 65.4763 -43.6285 0
-0.498034 66.0018 -43.4081 0
-0.389062 65.4939 -43.3159 0
0.859347 61.9627 -40.0173 0
0.315411 61.808 -39.6306 0
1.74705 62.2309 -40.7825 0
1.30988 62.099 -40.4116 0
0.646848 62.6588 -40.7454 0
0.405629 63.2801 -41.4599 0
0.0246807 63.5274 -40.936 0
2.79958 62.4526 -41.592 0
2.24319 62.3144 -41.1859 0
3.32545 62.7108 -41.9565 0
2.75886 63.2183 -42.3283 0
1.9744 63.4914 -42.7043 0
0.88705 63.3423 -41.8667 0
0.175747 63.8634 -42.0974 0
1.59358 62.8959 -41.5124 0
1.38675 63.3392 -42.288 0
1.17765 63.7473 -43.0291 0
-0.0297458 64.4376 -42.6371 0
-0.617268 64.5931 -42.1661 0
0.474757 64.3397 -43.1157 0
-0.24713 64.9562 -43.1539 0
-1.15725 65.6676 -43.1487 0
-0.306797 62.785 -39.8085 0
-0.235466 61.6984 -39.2144 0
-0.749258 64.3212 -41.0405 0
-0.372087 63.7912 -40.3987 0
-0.81543 63.7885 -39.8871 0
-1.6415 64.5336 -40.0401 0
-1.28795 63.7391 -39.3747 0
-1.48879 65.3542 -42.2158 0
-1.15896 64.8069 -41.6685 0
-2.09851 66.4359 -43.1796 0
-1.79519 65.9223 -42.7075 0
-2.36575 66.1045 -42.325 0
-3.17806 66.8729 -42.5927 0
-2.872 66.3125 -41.9252 0
-1.99345 65.27 -40.7084 0
-2.29646 65.3957 -40.0874 0
-1.57534 65.0475 -41.1743 0
-2.42692 65.7996 -41.3175 0
-3.28495 66.5331 -41.4598 0
-3.15994 66.1012 -40.2051 0
-2.56604 65.4725 -39.4138 0
-4.04217 67.3415 -41.6313 0
-3.70967 66.7094 -40.9736 0
-4.0314 66.8408 -40.3266 0
-4.75926 67.6924 -40.3953 0
-4.29337 66.9508 -39.5699 0
3.87784 68.0428 -41.0727 0
4.04561 67.8248 -42.0936 0
3.26431 68.3105 -39.4212 0
3.74603 68.3218 -40.2015 0
3.30609 68.576 -40.8331 0
2.72477 69.1674 -40.5645 0
2.85934 68.8886 -41.4802 0
2.23994 67.8925 -37.5931 0
2.7291 68.1323 -38.5504 0
1.83888 68.3928 -37.1048 0
1.39959 68.9395 -36.6913 0
1.84083 69.1193 -37.654 0
2.52756 69.3275 -39.6309 0
2.00502 69.5543 -40.2457 0
2.79686 68.8124 -38.9955 0
2.15278 69.2412 -38.656 0
1.64436 69.761 -38.2991 0
1.11127 69.6048 -39.7271 0
1.20077 69.2936 -40.6437 0
1.01929 70.1768 -37.8931 0
1.11865 70.1446 -38.9166 0
0.335462 69.9634 -39.3736 0
-0.702833 70.2299 -39.1594 0
-0.773815 69.6729 -40.0163 0
-0.570545 70.6549 -38.1562 0
-1.63571 70.3626 -38.7712 0
0.90545 70.0992 -36.9013 0
0.241942 70.5286 -37.5667 0
-0.676517 70.7007 -37.2089 0
-0.777413 70.6638 -36.3058 0
-1.52524 70.8263 -36.7445 0
-2.53364 70.5289 -38.4198 0
-2.56325 70.1758 -39.4973 0
-2.24782 71.1172 -36.3379 0
-2.40352 70.9721 -37.3428 0
-3.28308 70.8475 -38.0286 0
-3.95108 71.3958 -37.6646 0
-4.03166 71.0208 -38.7902 0
-3.67529 71.6615 -36.6718 0
-4.35384 71.9185 -37.4103 0
-4.49532 72.4528 -37.2454 0
-4.93606 72.285 -38.2138 0
-4.01573 72.6008 -36.3763 0
-4.55911 73.1725 -37.1568 0
-5.01469 73.7422 -37.9867 0
-5.20137 68.3766 -41.1643 0
-5.39594 68.707 -40.4066 0
-4.38291 67.929 -42.289 0
-4.76907 68.1744 -41.7595 0
-5.51907 69.1086 -41.7959 0
-5.84333 69.7719 -42.3976 0
-6.11021 70.1584 -41.6558 0
-3.39118 67.4167 -43.4048 0
-3.89757 67.6803 -42.876 0
-2.27525 66.8887 -43.3908 0
-2.8816 67.1763 -43.5843 0
-3.61579 67.9079 -44.1602 0
-3.76206 68.4029 -44.4552 0
-4.29882 68.7826 -43.9802 0
-5.31082 69.4567 -42.7805 0
-6.08895 70.3531 -42.7944 0
-4.6097 68.5239 -42.9438 0
-4.786 69.1323 -43.2247 0
-4.9739 69.7096 -43.4584 0
-6.34468 70.8766 -43.2391 0
-6.76867 71.1986 -42.7443 0
-5.11995 70.2399 -43.4266 0
-5.75214 70.5735 -43.4581 0
-6.59491 71.3552 -43.656 0
-6.63983 71.7227 -43.5641 0
-7.33964 72.0548 -43.7832 0
-0.584897 66.5428 -43.5303 0
-1.43368 66.6906 -43.422 0
1.13737 66.6191 -43.6593 0
0.289733 66.4919 -43.6384 0
-0.570303 67.0761 -43.3284 0
-0.550167 67.7009 -42.9577 0
-1.48646 67.7279 -43.2938 0
2.85453 67.7115 -42.7959 0
1.94701 67.1888 -43.2245 0
3.50095 67.7799 -42.3327 0
2.85513 68.3019 -42.091 0
2.10646 68.661 -41.7866 0
0.287075 67.8084 -42.4398 0
-0.653755 68.247 -42.1852 0
1.14731 67.3713 -42.857 0
1.1834 68.0358 -41.9941 0
1.18408 68.6775 -41.3117 0
-0.763505 68.6897 -41.543 0
-1.45761 68.8785 -42.0952 0
0.180391 68.8415 -40.9845 0
-0.801519 69.1924 -40.8039 0
-1.7525 69.4873 -40.6105 0
-5.93478 71.4354 -43.3044 0
-6.51225 72.1595 -43.6302 0
-4.45561 69.9856 -43.7112 0
-5.21872 70.7364 -43.3449 0
-5.13245 71.2579 -43.1547 0
-4.09294 71.1248 -42.8536 0
-4.86991 71.7882 -42.7327 0
-3.17259 68.0652 -44.1298 0
-3.7993 69.0151 -44.265 0
-2.38612 67.308 -43.5246 0
-2.47923 67.8311 -43.7087 0
-2.30228 68.5207 -43.3009 0
-3.4694 70.3784 -43.1833 0
-3.31687 70.7661 -42.4162 0
-3.75313 69.781 -43.9426 0
-2.93006 69.4761 -43.3344 0
-2.09274 69.2057 -42.7495 0
-3.11178 69.854 -41.8211 0
-3.70402 70.6053 -41.5757 0
-2.3335 69.3422 -41.9889 0
-2.63956 69.3243 -41.23 0
-2.66311 69.7534 -40.4015 0
-6.37415 72.6816 -43.4345 0
-7.05637 72.9086 -44.0337 0
-4.95023 72.0299 -42.1583 0
-5.68426 72.4412 -42.7358 0
-6.07686 73.0881 -42.7209 0
-5.87371 73.1361 -41.6436 0
-6.14788 73.5368 -42.2651 0
-4.08233 70.5062 -40.7103 0
-4.41668 71.2624 -41.2719 0
-3.42912 70.0703 -40.0902 0
-4.06766 70.7663 -39.7402 0
-4.67769 71.4161 -39.4018 0
-5.54073 72.583 -40.9407 0
-5.78969 73.1261 -40.6553 0
-5.17823 71.8837 -41.1634 0
-5.12035 71.9155 -40.1296 0
-5.12757 72.1061 -39.1831 0
-5.45315 73.322 -39.7501 0
-5.51606 73.7844 -40.4668 0
-5.25869 72.8183 -38.9815 0
-5.25457 73.5216 -38.8378 0
-4.99896 74.1847 -38.7478 0
-5.94203 69.9093 -40.1715 0
-5.52753 69.0966 -39.4878 0
-6.65142 71.0772 -41.4098 0
-6.32008 70.5736 -40.8041 0
-6.69062 70.7549 -39.863 0
-7.26327 71.4142 -39.5391 0
-7.11365 70.8664 -38.8874 0
-7.28456 71.9879 -42.5666 0
-6.98213 71.5345 -42.0114 0
-7.97332 72.6882 -43.8119 0
-7.64148 72.3561 -43.1879 0
-7.61069 72.57 -42.322 0
-7.62971 73.0687 -41.9093 0
-7.48236 72.7056 -41.2816 0
-7.46799 71.9256 -40.1691 0
-8.04167 72.0259 -39.2852 0
-7.21759 71.7754 -41.1118 0
-7.49909 72.3387 -40.7306 0
-8.04442 72.9941 -40.5306 0
-8.73467 72.7391 -39.1637 0
-8.62597 72.1284 -38.4484 0
-8.77511 73.7224 -40.4805 0
-8.85163 73.3263 -39.9108 0
-9.47401 73.2492 -39.2428 0
-10.1307 73.6286 -39.26 0
-10.1142 73.0273 -38.6967 0
-7.41132 73.6021 -44.0459 0
-7.80118 73.0833 -44.0279 0
-6.21835 74.0129 -41.8521 0
-6.75829 73.8163 -42.9059 0
-7.47866 74.1186 -43.3361 0
-7.52317 74.6835 -42.5869 0
-8.02915 73.9997 -42.9507 0
-5.25659 74.4593 -40.3184 0
-5.70382 74.2535 -41.0672 0
-4.95059 74.6522 -39.5047 0
-5.35313 75.3028 -39.9287 0
-5.83358 75.7175 -40.0813 0
-6.75843 74.9023 -41.4189 0
-7.00383 74.844 -41.1985 0
-6.21597 74.549 -41.1875 0
-6.22559 75.1019 -40.5535 0
-6.20554 76.0695 -40.0986 0
-6.69986 75.3237 -40.1214 0
-7.16768 74.3157 -40.4547 0
-6.45325 76.262 -39.8899 0
-6.90695 75.9238 -39.3924 0
-7.47596 75.4887 -38.8699 0
-10.0517 74.1953 -39.776 0
-10.7171 73.9102 -39.3554 0
-8.50267 73.7478 -40.8255 0
-9.33468 74.0717 -40.2751 0
-9.86716 74.4788 -40.1974 0
-9.59789 74.4875 -40.5023 0
-10.367 74.8651 -40.0034 0
-8.05751 73.437 -42.6114 0
-7.69577 73.4236 -41.3984 0
-8.58129 73.3268 -43.8441 0
-8.24757 73.5393 -42.9811 0
-7.73399 73.5705 -41.8113 0
-8.81263 74.0961 -40.898 0
-9.20068 74.4676 -40.4541 0
-8.23677 73.7613 -41.164 0
-8.14034 73.7994 -41.245 0
-7.76218 73.7735 -41.0231 0
-8.56631 74.3744 -39.9275 0
-9.47215 74.7911 -39.951 0
-7.63534 73.9418 -39.8828 0
-7.72055 74.3413 -39.0687 0
-8.15146 75.1613 -38.6274 0
-11.4684 74.0721 -39.9621 0
-11.5543 73.4497 -39.5926 0
-10.7642 75.0567 -39.8962 0
-11.1847 74.6601 -40.0191 0
-12.0068 74.1765 -40.1119 0
-12.55 74.435 -40.0099 0
-12.8752 73.9584 -40.0092 0
-9.66334 75.0917 -39.4338 0
-10.2643 75.0516 -39.767 0
-9.01084 75.4116 -38.6672 0
-9.73217 75.4429 -38.5006 0
-10.5698 75.5319 -38.407 0
-12.1482 74.9539 -39.902 0
-13.1505 74.7413 -39.8894 0
-11.1801 75.2302 -39.8613 0
-11.4408 75.4086 -39.3869 0
-11.3172 75.5263 -38.1429 0
-13.279 74.8966 -39.2086 0
-13.7991 74.5923 -39.4999 0
-12.2536 75.303 -38.186 0
-13.1877 75.105 -38.3491 0
-13.6467 74.8074 -38.0307 0
5.3235 57.0132 -35.2808 0
5.90357 56.2643 -35.2814 0
4.007 58.5842 -35.7945 0
4.70208 57.7727 -35.4685 0
5.1388 56.5905 -35.3276 0
4.96249 56.1494 -35.4862 0
5.58998 55.3562 -35.2852 0
2.44895 59.5923 -36.8036 0
3.24724 59.2015 -36.2633 0
0.832449 60.2712 -37.985 0
1.60103 59.8255 -37.5544 0
2.10617 59.3319 -36.4859 0
1.79233 59.0828 -36.0655 0
2.57142 58.4847 -36.035 0
4.24614 57.1009 -35.6382 0
4.76098 55.613 -35.7619 0
3.72019 58.384 -35.6253 0
3.40764 57.9589 -35.638 0
3.07934 57.5341 -35.6434 0
4.61947 55.1302 -35.7599 0
5.17246 54.1551 -35.8784 0
2.80115 57.1679 -35.5327 0
3.77754 56.2813 -35.6324 0
4.44853 54.7529 -35.8233 0
4.13659 54.2895 -36.0703 0
4.87516 53.445 -36.1508 0
-0.531672 61.7195 -38.6673 0
0.0782275 60.9129 -38.3767 0
-1.62672 63.715 -38.7882 0
-1.04691 62.775 -38.7308 0
-0.698561 61.7938 -38.0458 0
-0.947258 61.6983 -37.4699 0
-0.289782 60.9258 -37.2452 0
-2.88128 65.4366 -38.7604 0
-2.2004 64.641 -38.758 0
-4.48925 66.9913 -38.8832 0
-3.76947 66.1357 -38.8241 0
-3.30451 65.191 -38.2322 0
-3.62034 64.9021 -37.7071 0
-2.9293 64.1796 -37.647 0
-1.62486 62.5285 -37.6147 0
-1.29001 61.3217 -37.0747 0
-1.95288 63.5885 -38.2339 0
-2.29052 63.3662 -37.6565 0
-2.68667 62.8988 -37.0675 0
-1.64082 60.9281 -36.4941 0
-0.95173 60.2119 -36.4854 0
-3.07934 62.3373 -36.4441 0
-2.35569 61.6565 -36.4452 0
-1.94063 60.3579 -36.1587 0
-2.21707 59.7536 -35.7785 0
-1.5588 59.1109 -35.8896 0
3.16103 55.2043 -35.902 0
3.70535 53.8464 -36.2878 0
1.9125 57.9538 -35.2541 0
2.52336 56.7815 -35.3805 0
2.24046 56.1457 -35.4464 0
1.29555 56.7133 -35.2388 0
1.9761 55.5677 -35.5434 0
1.02837 59.5843 -36.4906 0
1.4602 58.844 -35.6255 0
0.543637 60.2345 -37.4074 0
0.312745 60.1688 -36.9053 0
0.0629171 59.9266 -36.5376 0
0.808351 57.8675 -35.444 0
0.483296 57.3727 -35.2864 0
1.12125 58.464 -35.4176 0
0.422886 58.9649 -35.8682 0
-0.268608 59.5796 -36.1636 0
-0.276021 57.9123 -35.3479 0
0.353529 57.005 -35.5622 0
-0.608994 59.0526 -35.9111 0
-0.915567 58.5192 -35.61 0
-0.978156 58.1448 -35.8044 0
3.46087 53.7583 -36.5665 0
4.31412 52.964 -36.5644 0
1.81026 55.2878 -35.8362 0
2.67289 54.5573 -36.1138 0
3.37954 53.8202 -36.8761 0
3.24603 53.8333 -37.1951 0
4.00036 53.0316 -37.2184 0
0.310793 56.6445 -35.7528 0
1.03145 56.0155 -35.7258 0
-1.01555 57.743 -35.9433 0
-0.361008 57.1785 -35.7571 0
0.249928 56.3283 -36.3568 0
0.140138 56.0751 -36.9487 0
0.839537 55.494 -36.9443 0
2.34017 54.4071 -36.9878 0
3.11352 54.0623 -37.6734 0
1.69178 55.1778 -36.3954 0
1.56066 54.9898 -36.9451 0
1.36867 54.8371 -37.4476 0
2.93284 54.2353 -38.1295 0
3.84782 53.8344 -38.2496 0
1.11215 54.7838 -37.9317 0
1.86446 54.2679 -37.9113 0
2.58753 54.0941 -38.5288 0
2.19794 54.1934 -38.9521 0
3.25036 54.1917 -39.1449 0
-6.03953 69.1382 -38.6977 0
-5.09995 68.0996 -38.8437 0
-7.68625 70.7695 -38.1171 0
-6.91418 70.0876 -38.3726 0
-6.66983 68.9314 -38.1361 0
-7.14422 68.5982 -37.5189 0
-6.29119 67.518 -37.9223 0
-9.16657 71.8392 -37.9572 0
-8.42534 71.3929 -37.928 0
-10.746 72.768 -38.3809 0
-9.9082 72.2681 -38.1029 0
-9.66013 71.4314 -37.5486 0
-10.1824 71.0728 -37.2988 0
-9.36369 70.5045 -37.0207 0
-7.85528 69.4755 -37.1708 0
-7.43874 68.0665 -37.0596 0
-8.16613 70.4913 -37.5447 0
-8.59991 70.0088 -37.1102 0
-8.96928 69.4699 -36.6753 0
-7.75415 67.5885 -36.6958 0
-6.90752 66.588 -37.0848 0
-9.30781 68.9423 -36.3763 0
-8.56239 68.4097 -36.3766 0
-7.92358 67.0951 -36.7719 0
-8.27281 66.5106 -36.875 0
-7.19566 65.625 -37.1286 0
-12.2536 73.2002 -39.4199 0
-11.4718 72.9793 -38.8881 0
-13.6438 73.8764 -39.6606 0
-13.1049 73.5402 -39.8349 0
-13.0621 73.1095 -39.244 0
-13.2932 72.5719 -39.0373 0
-12.4523 72.3337 -38.6441 0
-14.2537 74.4631 -38.9145 0
-14.0133 74.2153 -39.3709 0
-13.9242 74.416 -37.6565 0
-14.1584 74.4624 -38.3155 0
-14.4468 73.9032 -38.4751 0
-14.4338 72.8697 -38.0705 0
-14.4832 73.0127 -38.537 0
-13.8628 72.7846 -38.9307 0
-13.4295 71.8348 -38.5586 0
-14.1614 73.7928 -39.1914 0
-14.1296 72.9809 -38.648 0
-14.2408 72.0586 -38.3269 0
-13.3922 71.0301 -38.3649 0
-12.7152 70.8371 -38.1385 0
-13.8763 71.1843 -38.329 0
-13.6282 71.1234 -38.3616 0
-12.8624 70.1965 -38.5319 0
-12.5082 69.4792 -38.7598 0
-12.2164 69.1274 -38.5067 0
-9.22423 67.1593 -36.6997 0
-8.5727 65.9585 -37.0243 0
-10.0487 69.4329 -36.3808 0
-9.62261 68.2576 -36.5426 0
-9.99149 67.5071 -36.6904 0
-10.6758 67.8282 -36.8037 0
-10.1465 66.8631 -37.0503 0
-11.0429 71.6419 -37.6341 0
-10.527 70.5452 -36.9979 0
-11.3867 72.5046 -38.2079 0
-11.71 72.0609 -38.113 0
-11.6545 71.4066 -38.0927 0
-10.8126 69.0823 -37.2175 0
-11.1573 68.2113 -37.424 0
-10.5502 69.9388 -36.9732 0
-11.0462 70.3835 -37.5656 0
-11.7773 70.666 -37.9367 0
-11.6626 68.5328 -37.9733 0
-11.1327 67.6287 -38.1074 0
-12.1148 69.6896 -38.0828 0
-12.0216 68.8242 -38.2674 0
-12.0998 68.2335 -38.7016 0
-8.52967 65.346 -37.5891 0
-7.54855 64.3799 -37.5898 0
-10.0202 66.392 -37.8913 0
-9.35656 65.9125 -37.5902 0
-8.53858 64.6273 -38.1145 0
-8.58551 63.9868 -38.7063 0
-7.85747 62.9326 -38.4924 0
-11.2672 67.071 -38.6282 0
-10.5527 66.7832 -38.3302 0
-12.2359 67.7848 -39.2636 0
-12.027 67.3164 -38.8742 0
-11.4859 66.4355 -39.0799 0
-11.6053 65.9731 -39.6213 0
-10.9524 65.4878 -39.2801 0
-9.29772 64.716 -38.946 0
-8.709 63.4084 -39.2164 0
-9.93905 65.8537 -38.6303 0
-10.1505 65.1609 -39.08 0
-10.3869 64.5068 -39.5265 0
-8.92882 62.9757 -39.7927 0
-8.28654 61.9982 -39.5604 0
-10.747 64.113 -39.9528 0
-9.75246 63.6097 -39.9438 0
-9.12208 62.5384 -40.3681 0
-9.52505 62.0835 -40.715 0
-8.64562 61.3723 -40.7788 0
1.34297 54.5938 -38.9209 0
1.94682 54.6013 -39.5078 0
0.347396 55.3383 -37.9346 0
0.772355 54.7725 -38.3649 0
0.51648 55.0258 -38.9158 0
-0.14303 55.5632 -38.9911 0
0.314968 55.2019 -39.4909 0
-0.561943 56.6122 -36.9647 0
-0.0594863 55.9211 -37.4769 0
-1.65733 58.2287 -36.0789 0
-1.10288 57.4177 -36.4992 0
-1.2609 57.1373 -37.0703 0
-1.95744 57.5524 -37.1498 0
-1.47179 56.9412 -37.5912 0
-0.573179 55.9596 -38.508 0
-0.757188 56.1668 -39.1074 0
-0.327641 55.9216 -37.9875 0
-0.992852 56.4733 -38.0708 0
-1.65236 56.9461 -38.1472 0
-1.36169 56.7149 -39.2006 0
-0.915549 56.4585 -39.7395 0
-2.29295 57.4284 -38.1806 0
-1.82302 56.9767 -38.6593 0
-1.9802 57.1711 -39.3099 0
-2.61871 57.6071 -39.3817 0
-2.16285 57.3871 -39.9678 0
-2.88716 60.3834 -35.6863 0
-2.24399 59.261 -35.8639 0
-3.81986 63.0077 -36.4899 0
-3.36264 61.6755 -36.0286 0
-3.52581 61.029 -35.9165 0
-4.23785 61.7169 -36.1607 0
-3.58042 60.3707 -36.0867 0
-4.3648 65.6112 -37.8146 0
-4.14265 64.3042 -37.1713 0
-4.70602 66.8471 -38.36 0
-5.2622 66.4693 -37.8292 0
-5.82909 65.9469 -37.1468 0
-4.84705 63.0657 -36.4072 0
-5.16139 62.2453 -36.2776 0
-4.5671 63.7009 -36.5547 0
-5.37381 64.3898 -36.5837 0
-6.18933 65.4214 -36.8781 0
-5.99837 62.9692 -36.5235 0
-5.41878 61.4362 -36.2087 0
-6.44566 64.8297 -36.8866 0
-6.55501 64.3252 -36.9166 0
-6.65957 63.7015 -37.0882 0
-3.11197 57.8442 -38.7585 0
-3.39957 57.7074 -39.4786 0
-2.80091 57.8823 -37.6604 0
-2.95067 57.8528 -38.2145 0
-3.74179 58.1586 -38.3105 0
-4.42603 58.5196 -37.8867 0
-4.5165 58.2486 -38.5657 0
-2.43482 58.3119 -36.7121 0
-2.62197 57.9779 -37.1612 0
-2.28613 58.6797 -36.0838 0
-2.97134 59.1659 -36.2091 0
-3.8341 59.5654 -36.1396 0
-4.25458 58.6741 -37.2756 0
-5.10818 59.0978 -37.4767 0
-3.35305 58.4174 -37.1267 0
-4.0187 59.1421 -36.6632 0
-4.79376 60.0193 -36.0962 0
-5.64028 60.2455 -37.1945 0
-5.78015 59.8336 -37.7799 0
-5.50939 60.7435 -36.5041 0
-6.19275 61.6394 -36.889 0
-6.76448 63.0728 -37.3473 0
-4.17267 57.7719 -39.697 0
-3.70634 57.5684 -40.1837 0
-5.23762 58.7029 -38.8223 0
-4.66917 58.0228 -39.2187 0
-5.02241 57.9978 -39.8075 0
-5.84917 58.4243 -39.9702 0
-5.34947 57.967 -40.4264 0
-6.45735 60.7939 -38.0391 0
-5.88226 59.5673 -38.4153 0
-6.90294 62.5742 -37.8466 0
-7.09366 61.8781 -38.316 0
-7.30821 61.3769 -38.8157 0
-6.41201 58.9407 -39.475 0
-6.55387 58.8793 -40.2093 0
-6.15763 59.2087 -38.9235 0
-6.89176 60.0297 -39.1115 0
-7.57117 60.9938 -39.3933 0
-7.2255 59.677 -40.4883 0
-6.70746 58.8142 -40.9503 0
-7.78553 60.6543 -40.007 0
-7.9767 60.4219 -40.615 0
-8.15187 60.1619 -41.2572 0
1.65544 55.0037 -40.068 0
2.52474 54.5988 -40.0827 0
0.128678 55.5267 -40.1089 0
0.870461 55.2083 -40.0611 0
1.21622 54.9224 -40.6239 0
0.721815 54.8397 -41.2398 0
1.61144 54.5564 -41.1692 0
-1.13162 56.7241 -40.3932 0
-0.493291 56.1722 -40.2415 0
-2.51322 57.3574 -40.6158 0
-1.79649 57.1485 -40.535 0
-1.65165 56.7585 -41.093 0
-1.99565 57.0324 -41.712 0
-1.51335 56.3587 -41.6532 0
-0.146694 55.2236 -41.3491 0
0.20454 54.9591 -41.9585 0
-0.319207 55.6897 -40.7789 0
-0.834021 55.8069 -41.504 0
-1.24959 56.0391 -42.236 0
-0.11603 55.3185 -42.6594 0
0.711151 54.8476 -42.5273 0
-1.35419 56.8081 -42.8959 0
-0.816897 55.9171 -42.797 0
-0.388214 55.7944 -43.3491 0
-0.634791 56.4936 -43.9926 0
-0.0142885 55.6604 -43.8726 0
-3.98569 57.6532 -40.8041 0
-3.23765 57.4929 -40.6938 0
-5.51032 58.0237 -41.2185 0
-4.79927 57.7541 -40.9439 0
-4.18757 57.803 -41.5245 0
-4.45883 57.8167 -42.37 0
-3.62248 57.9081 -42.1236 0
-6.93889 58.8093 -41.7543 0
-6.20627 58.3663 -41.4962 0
-8.4327 59.9924 -41.8227 0
-7.62637 59.4194 -41.9226 0
-7.21894 58.8109 -42.5191 0
-7.68567 58.7105 -43.0557 0
-6.91086 58.2559 -43.0872 0
-5.32989 57.8122 -42.6225 0
-5.10021 57.6839 -43.1463 0
-5.72262 58.0823 -42.0682 0
-6.15968 58.0338 -42.9156 0
-6.74432 57.8721 -43.5783 0
-5.79675 57.4596 -43.9574 0
-4.83617 57.7595 -43.7127 0
-7.31934 57.6322 -44.1634 0
-6.57723 57.5391 -44.0608 0
-6.37383 57.4302 -44.5657 0
-6.93436 57.4322 -45.1759 0
-6.1398 57.4927 -45.073 0
-1.28154 57.2704 -44.0965 0
-0.982093 57.0739 -44.6261 0
-1.87671 57.532 -42.9723 0
-1.54463 57.4534 -43.5636 0
-1.97253 57.8578 -44.2298 0
-2.59775 58.3291 -44.3912 0
-2.39392 58.1699 -44.92 0
-2.51554 57.4849 -41.7972 0
-2.21578 57.5458 -42.3703 0
-2.86238 57.4781 -41.2453 0
-2.98106 57.8025 -41.9412 0
-3.34221 58.0243 -42.6862 0
-2.87847 58.2143 -43.8622 0
-3.3347 58.3307 -44.5941 0
-2.47191 58.0315 -43.1161 0
-3.12103 58.1018 -43.2918 0
-3.86495 58.0575 -43.4895 0
-4.31672 58.119 -44.7839 0
-4.07103 58.2267 -45.3205 0
-4.57318 57.9332 -44.2486 0
-5.26792 57.8158 -44.9795 0
-5.90309 57.6782 -45.5434 0
-1.49503 57.4521 -45.2263 0
-0.684018 56.8476 -45.1402 0
-2.93167 58.4112 -45.5573 0
-2.23451 58.0337 -45.3516 0
-2.07134 57.8916 -45.8137 0
-2.77796 58.0563 -46.481 0
-1.97882 57.5282 -46.382 0
-4.78288 58.1401 -45.8923 0
-3.82792 58.3422 -45.7936 0
-6.56983 57.9293 -46.1123 0
-5.69741 57.8916 -45.9604 0
-5.48712 58.0765 -46.3976 0
-6.26777 58.1987 -46.6566 0
-5.28968 58.1757 -46.8253 0
-3.57501 58.2595 -46.6816 0
-3.57868 58.0549 -47.1352 0
-3.59967 58.4587 -46.2752 0
-4.35581 58.3522 -46.7784 0
-5.12844 58.3136 -47.1823 0
-4.31098 58.149 -47.6676 0
-3.62065 57.8117 -47.6094 0
-6.01528 58.2623 -47.1681 0
-5.0034 58.2865 -47.4391 0
-5.08318 58.0457 -47.6421 0
-5.9442 57.8525 -47.4464 0
-5.20515 57.5612 -47.7845 0
-6.87991 58.4525 -47.451 0
-6.87302 57.6576 -47.3433 0
-6.96606 58.4785 -47.0397 0
-6.89014 58.5404 -47.2708 0
-7.63986 58.8468 -47.4704 0
-8.15076 58.8552 -47.614 0
-8.20111 57.966 -47.4967 0
-7.14814 58.5719 -46.8451 0
-7.04239 58.5405 -46.9624 0
-7.40068 58.281 -46.239 0
-7.25642 58.6722 -46.7455 0
-7.83274 59.3691 -47.1643 0
-8.38219 59.8696 -47.0601 0
-8.27887 60.2173 -47.6034 0
-8.13249 59.5669 -47.6836 0
-8.60108 58.8592 -47.8284 0
-7.61883 59.3231 -47.3957 0
-8.18327 60.11 -47.7047 0
-8.67184 60.1554 -47.848 0
-9.07738 58.8004 -47.9812 0
-9.10635 57.7325 -47.6191 0
-9.1243 59.9471 -47.5962 0
-9.09972 59.6375 -48.048 0
-9.62709 58.476 -47.8456 0
-10.2603 57.9561 -47.5169 0
-10.0339 57.4548 -47.3828 0
-7.69207 57.7932 -45.1379 0
-7.52525 57.9111 -45.6552 0
-8.04994 57.94 -44.2073 0
-7.86838 57.8095 -44.6599 0
-8.396 58.1739 -45.0952 0
-9.03377 58.469 -45.0989 0
-8.84724 58.5176 -45.5406 0
-8.4152 59.1792 -43.0431 0
-8.22927 58.5495 -43.6255 0
-9.32502 60.5765 -41.7249 0
-8.74245 59.8619 -42.4171 0
-9.14331 59.656 -43.0346 0
-9.89463 60.0663 -43.0121 0
-9.5849 59.431 -43.6185 0
-9.19864 58.6309 -44.6334 0
-9.60063 58.6398 -45.1188 0
-8.72499 58.3877 -44.2029 0
-9.36044 58.8544 -44.1742 0
-10.0681 59.2819 -44.0354 0
-10.2315 58.9507 -45.0146 0
-9.99708 58.728 -45.6014 0
-10.7696 59.7208 -43.8319 0
-10.49 59.2908 -44.4126 0
-10.9108 59.3186 -44.7348 0
-11.599 59.6445 -44.4121 0
-11.3708 59.3033 -44.9964 0
-10.3774 58.6227 -47.3554 0
-10.7716 57.8344 -47.0243 0
-9.23143 60.0272 -47.0834 0
-9.6507 59.6734 -47.2832 0
-10.4001 59.282 -46.9543 0
-10.571 59.2804 -46.7659 0
-11.113 58.9685 -46.7204 0
-8.48463 59.5178 -46.5199 0
-8.88581 60.143 -46.8209 0
-8.10693 58.6466 -46.1698 0
-8.63505 59.0922 -45.9549 0
-9.22369 59.2747 -45.918 0
-10.0863 59.332 -46.7532 0
-10.7438 58.9561 -46.7021 0
-9.41384 59.8313 -46.6453 0
-9.64915 59.5094 -46.3626 0
-9.8252 59.1128 -45.9713 0
-10.9206 58.9187 -46.4159 0
-11.3772 58.9891 -46.3032 0
-10.436 58.7747 -46.0248 0
-11.1273 59.093 -45.6984 0
-11.7601 59.3363 -45.3204 0
-11.2263 57.8939 -46.5423 0
-10.9436 57.3972 -46.4601 0
-11.6124 58.9043 -46.3514 0
-11.4926 58.4376 -46.5258 0
-11.6355 58.0036 -46.0923 0
-11.8935 58.1256 -45.4948 0
-11.52 57.5988 -45.2899 0
-11.9407 59.1309 -45.8564 0
-11.81 59.1154 -46.1317 0
-12.3374 59.5187 -44.9161 0
-12.1133 59.2433 -45.4649 0
-12.4702 59.2322 -45.4672 0
-12.9371 59.2377 -45.1756 0
-12.7789 59.0191 -45.4418 0
-12.3056 58.5363 -45.684 0
-12.1376 58.1975 -44.8994 0
-12.0904 58.8522 -45.9556 0
-12.5721 58.8004 -45.6077 0
-12.9974 58.7388 -45.1997 0
-12.4766 58.1483 -44.3772 0
-12.0314 57.846 -44.1115 0
-13.3062 58.6915 -44.6803 0
-12.948 58.4159 -44.6074 0
-12.8571 58.0524 -43.9211 0
-13.1634 57.8305 -43.7063 0
-12.6289 57.4603 -43.6559 0
-10.5444 62.7367 -40.7145 0
-9.95943 61.5291 -41.0726 0
-11.491 64.6416 -40.207 0
-11.1043 63.7235 -40.395 0
-11.4433 63.2807 -40.7924 0
-12.0113 63.8581 -41.0922 0
-11.5648 62.9026 -41.3242 0
-12.1843 66.4771 -39.9963 0
-11.7009 65.5986 -40.1781 0
-12.4808 68.364 -39.7508 0
-12.3393 67.4516 -39.9034 0
-12.3779 67.0659 -40.4886 0
-12.7992 67.5395 -40.8217 0
-12.6486 66.5579 -40.8946 0
-12.3231 64.7622 -40.9871 0
-12.5238 64.369 -41.4145 0
-12.0441 65.1759 -40.6051 0
-12.5449 65.6558 -40.9308 0
-12.9155 66.1213 -41.2824 0
-12.9349 64.8492 -41.737 0
-12.542 64.0068 -41.8899 0
-13.3103 66.5884 -41.6575 0
-13.179 65.7366 -41.7246 0
-13.3433 65.4219 -42.2293 0
-13.7681 65.9685 -42.7246 0
-13.3173 65.058 -42.662 0
-13.0647 69.7985 -38.7134 0
-12.6661 69.1821 -39.4327 0
-14.356 71.475 -38.2978 0
-13.722 70.6211 -38.4701 0
-13.6253 70.1175 -38.6857 0
-14.1225 70.3627 -38.58 0
-13.7836 69.7426 -39.298 0
-14.3789 73.0461 -37.7701 0
-14.5557 72.2662 -37.9736 0
-13.0199 73.8602 -37.0128 0
-14.0141 73.7948 -37.4902 0
-14.0768 73.1316 -37.4113 0
-13.357 72.5763 -36.9161 0
-14.2169 72.5177 -37.3708 0
-14.2755 71.1264 -38.1753 0
-14.4826 70.5259 -38.3373 0
-14.3115 71.7002 -38.0782 0
-14.456 71.9431 -37.8223 0
-14.3753 71.8029 -37.4438 0
-14.8887 70.7098 -38.0712 0
-14.6249 70.0844 -38.9247 0
-13.8882 71.3319 -36.9722 0
-14.5419 71.1158 -37.5219 0
-14.9034 70.6581 -37.7118 0
-14.7024 70.4646 -37.2397 0
-14.9036 70.2241 -38.2499 0
-14.0353 66.8174 -42.6715 0
-14.2406 66.3695 -43.0618 0
-13.4776 67.3885 -41.4669 0
-13.7508 67.1198 -42.0575 0
-14.1607 67.5253 -42.1373 0
-14.3102 68.2256 -41.6043 0
-14.5509 67.8806 -42.2454 0
-13.0333 68.4181 -40.5996 0
-13.262 67.8974 -41.0234 0
-12.8212 68.8575 -40.0751 0
-13.3866 69.0899 -39.9773 0
-13.9632 69.2843 -39.8734 0
-14.2238 68.4686 -40.9821 0
-14.6075 68.8401 -41.0388 0
-13.7864 68.0552 -40.9342 0
-14.11 68.7629 -40.4086 0
-14.4199 69.4491 -39.7417 0
-14.6976 69.2274 -40.1464 0
-14.8228 69.0249 -40.8095 0
-14.6555 69.6015 -39.5137 0
-14.9197 69.8175 -39.2004 0
-14.9464 69.6492 -38.6829 0
-14.4182 66.5982 -42.9512 0
-14.3067 65.6861 -43.0208 0
-14.6921 68.1609 -42.113 0
-14.489 67.3976 -42.6142 0
-14.5538 66.813 -42.7997 0
-14.6744 67.2396 -42.5207 0
-14.6893 66.2011 -42.7676 0
-15.1918 68.883 -39.9268 0
-14.9806 68.5077 -41.094 0
-14.9262 69.1822 -37.8775 0
-15.0988 69.044 -38.9144 0
-15.1821 68.4952 -39.042 0
-14.6332 68.0759 -38.0547 0
-14.8735 67.9427 -39.0587 0
-14.6426 67.5885 -41.5055 0
-14.4765 67.0702 -41.1888 0
-14.9316 68.0823 -41.4325 0
-14.9255 67.812 -40.101 0
-14.3331 67.4068 -39.1172 0
-13.9375 66.7988 -40.0012 0
-14.1164 66.6078 -40.9296 0
-13.6815 67.126 -38.3365 0
-13.7806 66.9729 -39.2236 0
-13.265 66.5016 -39.1519 0
-12.2721 66.13 -38.2693 0
-12.5407 66.0157 -38.9471 0
-13.2702 58.6537 -43.7525 0
-13.0612 58.0823 -43.4305 0
-13.4783 59.2723 -44.9389 0
-13.3785 58.9536 -44.3498 0
-13.4668 59.2298 -44.0056 0
-13.649 59.8087 -44.2198 0
-13.2821 59.6419 -43.6582 0
-13.1301 59.7443 -45.226 0
-13.3362 59.5157 -45.0874 0
-12.582 60.0162 -44.8832 0
-12.8993 59.9104 -45.1327 0
-13.4154 60.2482 -45.339 0
-13.651 60.7132 -45.2907 0
-13.8265 60.5062 -45.3574 0
-13.9524 60.0402 -44.7166 0
-13.9267 60.3697 -44.3197 0
-13.7715 59.778 -45.004 0
-13.9075 60.2449 -45.0493 0
-14.1531 60.7575 -45.2736 0
-14.1542 60.9479 -44.4655 0
-13.844 60.7696 -43.9042 0
-14.1409 61.3319 -45.3137 0
-14.3248 61.1274 -45.1287 0
-14.3644 61.5963 -44.7625 0
-14.5426 62.1806 -44.5053 0
-14.2968 61.9368 -43.5787 0
-11.7683 60.0724 -44.1355 0
-12.1325 60.03 -44.4744 0
-11.0305 60.3497 -43.3104 0
-11.4262 60.1934 -43.6971 0
-11.9721 60.671 -43.7784 0
-12.2496 61.3813 -43.291 0
-12.4968 61.0826 -43.8745 0
-10.42 60.7828 -42.3082 0
-10.6464 60.5132 -42.9098 0
-10.2605 61.0897 -41.6167 0
-10.9855 61.8654 -41.7525 0
-11.6486 62.5239 -41.8963 0
-12.0184 61.6831 -42.7875 0
-12.4735 62.2211 -42.9055 0
-11.3371 61.1347 -42.845 0
-11.8266 62.095 -42.3592 0
-12.1326 63.0942 -42.0877 0
-12.6732 63.2027 -42.7572 0
-12.8416 62.7147 -43.0836 0
-12.4915 63.6493 -42.3625 0
-12.8633 64.1387 -42.647 0
-13.3934 64.5084 -42.7973 0
-14.2288 62.2968 -44.6326 0
-14.7118 62.6644 -43.3219 0
-13.7583 61.5183 -44.9533 0
-13.9598 61.8788 -44.9297 0
-13.8391 62.4225 -44.5007 0
-13.694 62.7295 -44.0949 0
-14.1349 63.0947 -43.8299 0
-13.2203 60.7853 -44.8469 0
-13.5444 61.1541 -44.9255 0
-12.6575 60.4188 -44.6406 0
-12.7742 60.829 -44.4134 0
-12.8895 61.535 -43.9986 0
-13.4275 62.3732 -44.0971 0
-13.6099 63.0576 -43.6271 0
-13.332 61.6518 -44.4956 0
-13.183 61.9745 -44.0709 0
-13.0193 62.3132 -43.5539 0
-13.6063 63.4776 -43.3945 0
-13.9815 63.7469 -43.2481 0
-13.1845 63.1477 -43.2732 0
-13.5102 63.9911 -43.0784 0
-13.9021 64.7839 -42.8987 0
-14.8969 63.1239 -42.2204 0
-14.5866 62.9478 -42.1061 0
-14.5059 63.7376 -43.1233 0
-14.7686 63.4056 -42.6467 0
-14.6385 63.8792 -41.9075 0
-14.4023 64.7143 -41.6622 0
-13.8817 64.2143 -41.3701 0
-14.4036 64.493 -43.1189 0
-14.3755 64.0328 -42.9936 0
-14.3752 65.0103 -42.9919 0
-14.7065 65.273 -42.9749 0
-14.6556 65.8265 -42.5848 0
-14.6577 65.1075 -41.9619 0
-13.9837 65.1943 -41.0163 0
-14.7381 64.5266 -42.5764 0
-14.6576 65.5449 -42.2988 0
-14.4395 66.3784 -41.8631 0
-13.4522 65.5772 -40.3169 0
-13.0612 65.0632 -40.018 0
-13.8441 66.0865 -40.6429 0
-12.962 65.8411 -39.6213 0
-12.1449 65.459 -38.6659 0
-12.858 58.4939 -43.13 0
-12.9716 57.3575 -43.1809 0
-13.0549 60.0071 -43.2426 0
-12.8729 59.4819 -43.1223 0
-12.5291 59.0901 -42.7799 0
-12.4012 59.5446 -42.412 0
-12.1204 58.7047 -42.4837 0
-13.5176 61.195 -43.3427 0
-13.2547 60.5296 -43.317 0
-14.3273 62.1857 -42.3453 0
-14.011 61.6938 -42.9681 0
-13.5514 61.4569 -42.4139 0
-13.9994 61.2856 -41.5899 0
-13.5148 60.7726 -42.0681 0
-12.8094 60.0429 -42.387 0
-12.5158 59.7482 -42.0577 0
-12.8463 60.3758 -42.8007 0
-12.8987 60.6306 -42.3902 0
-13.5657 60.2633 -41.7532 0
-12.6606 59.9485 -41.6468 0
-12.0158 59.4683 -41.7111 0
-14.1732 59.9172 -41.0622 0
-13.4101 60.0565 -41.4185 0
-12.8558 60.0452 -41.0851 0
-13.0612 60.0979 -40.4632 0
-12.3617 59.7611 -40.7271 0
-14.0579 63.0935 -41.409 0
-14.3707 62.5579 -41.8302 0
-13.2968 64.1343 -40.2929 0
-13.6944 63.6468 -40.9388 0
-13.6437 63.0477 -40.5247 0
-13.3232 62.8896 -39.4574 0
-13.7005 62.398 -40.1881 0
-12.3165 64.7533 -38.977 0
-12.9086 64.556 -39.599 0
-11.3241 64.9573 -37.7472 0
-11.777 64.8907 -38.3613 0
-11.6295 64.2553 -37.9751 0
-11.2958 63.4406 -36.8929 0
-11.7805 63.4979 -37.5088 0
-12.8805 63.3183 -38.7732 0
-12.9678 62.6084 -38.3966 0
-12.7605 64.0117 -39.2157 0
-12.3496 63.4197 -38.1244 0
-11.8612 62.7162 -37.1288 0
-12.5921 61.9662 -37.4787 0
-12.9654 61.938 -38.1524 0
-11.5809 61.8474 -36.2076 0
-12.0278 61.9878 -36.8593 0
-12.1061 61.2433 -36.6596 0
-11.5466 60.1617 -35.7153 0
-12.0129 60.3831 -36.3229 0
-13.5733 60.0559 -40.0814 0
-13.1927 60.0194 -39.7645 0
-14.3363 60.0718 -40.678 0
-14.0143 59.9329 -40.3764 0
-13.598 59.9275 -39.7013 0
-13.4771 59.9494 -39.2178 0
-13.2265 59.6145 -38.7753 0
-14.0155 61.8111 -41.1789 0
-14.215 60.8648 -40.9205 0
-14.0755 62.3053 -41.4557 0
-13.8944 62.0571 -40.7539 0
-13.7762 61.7121 -39.9452 0
-13.6293 60.5161 -39.4628 0
-13.1637 60.2778 -38.4559 0
-14.0347 60.5887 -40.2601 0
-13.7636 61.0716 -39.7345 0
-13.405 61.5359 -38.9373 0
-12.7784 60.5847 -37.6921 0
-12.5714 59.92 -37.3551 0
-12.9105 61.2725 -37.9748 0
-12.4541 60.4579 -36.9992 0
-11.9034 59.5473 -36.0425 0
-12.9491 59.6214 -38.8895 0
-12.7726 59.4951 -39.3922 0
-12.6506 59.3402 -37.6925 0
-12.9046 59.3931 -38.3586 0
-12.5929 59.1441 -37.9497 0
-12.237 58.843 -36.3923 0
-12.4634 58.6806 -37.4087 0
-12.0352 59.1821 -36.2697 0
-12.3572 59.3003 -37.0471 0
-11.2821 58.714 -34.9523 0
-11.6858 59.071 -35.523 0
-11.5 58.7285 -34.8969 0
-11.1559 58.1596 -33.6442 0
-11.4324 58.3947 -34.1962 0
-11.9566 58.839 -35.5224 0
-12.0303 58.6074 -34.7953 0
-12.1786 59.0768 -36.3179 0
-11.6151 58.6285 -34.7886 0
-11.7447 57.9778 -33.6086 0
-12.2886 58.0191 -33.537 0
-12.4582 58.368 -34.1792 0
-11.8849 57.4692 -32.4928 0
-12.1282 57.6662 -32.9821 0
-12.5846 57.6075 -32.5262 0
-11.3613 73.5204 -36.4821 0
-12.0516 73.8905 -36.5465 0
-9.94446 72.5494 -36.9902 0
-10.7026 73.0173 -36.7678 0
-10.9107 72.6144 -36.0842 0
-10.1871 71.6811 -35.5208 0
-11.1302 72.0503 -35.5397 0
-8.49682 71.489 -37.1347 0
-9.19106 72.0116 -37.0711 0
-8.32806 70.1472 -35.8342 0
-9.4746 71.2578 -35.6996 0
-9.41565 70.7127 -34.8345 0
-9.41057 71.7316 -36.5073 0
-8.85942 70.7281 -35.8861 0
-8.28651 69.4541 -35.115 0
-8.88969 69.4779 -34.4232 0
-9.76932 69.9931 -34.4879 0
-10.8725 57.774 -33.1126 0
-11.1477 57.5532 -32.4892 0
-10.8571 58.4176 -34.3568 0
-10.7552 57.9493 -33.7322 0
-10.6033 57.3861 -32.5536 0
-10.2917 56.9125 -32.026 0
-10.5428 56.7742 -31.3354 0
-11.0991 59.9085 -35.1341 0
-10.9622 59.0579 -34.8469 0
-11.1991 61.6526 -35.5704 0
-11.2322 60.8258 -35.3426 0
-10.646 59.6349 -34.5292 0
-10.2299 58.9 -34.0887 0
-10.127 58.1616 -33.7547 0
-10.8736 63.3207 -36.3036 0
-10.9708 62.4961 -35.9196 0
-10.8868 64.9806 -37.1814 0
-10.7485 64.2328 -36.793 0
-10.4497 63.3008 -35.7618 0
-10.3262 63.0795 -34.9378 0
-10.2891 62.0326 -34.6279 0
-10.3686 59.9397 -34.2245 0
-9.7238 57.8751 -33.2799 0
-10.7325 61.4919 -35.0165 0
-10.3726 61.0514 -34.3668 0
-9.93517 60.2466 -33.3045 0
-8.77986 56.7519 -31.7377 0
-8.66498 56.2385 -31.4286 0
-8.70757 58.7862 -32.3179 0
-8.77601 57.6261 -32.0018 0
-10.0058 57.0352 -32.6132 0
-10.4518 58.1675 -33.7384 0
-10.0037 57.5891 -33.237 0
-9.51991 56.7666 -32.3638 0
-11.7163 66.2596 -37.7086 0
-11.2085 65.6473 -37.5021 0
-13.0031 67.2526 -37.6059 0
-12.4 66.7787 -37.7401 0
-11.1036 66.3359 -37.0119 0
-10.8394 66.1425 -35.8752 0
-10.5933 65.5636 -35.7693 0
-14.1963 67.9948 -37.223 0
-13.6609 67.6063 -37.3655 0
-14.1335 69.1708 -37.0712 0
-14.285 68.5527 -37.1722 0
-13.5327 67.8546 -36.364 0
-12.4019 67.684 -35.6944 0
-12.0041 67.4682 -35.7574 0
-11.1704 66.6703 -35.8694 0
-10.2783 65.6389 -34.5996 0
-12.2951 67.2423 -36.7536 0
-11.4174 67.2055 -35.9318 0
-10.677 66.8239 -35.0246 0
-9.65522 64.584 -33.3308 0
-9.51473 63.8802 -33.0558 0
-10.0845 65.8698 -33.9559 0
-9.94169 65.2836 -33.5944 0
-9.06528 63.6559 -32.4794 0
-13.7899 70.3266 -36.4767 0
-14.0258 69.7981 -36.7402 0
-13.0365 71.3131 -36.3412 0
-13.4252 70.7999 -36.3922 0
-12.7469 70.0445 -35.816 0
-11.873 69.6283 -35.2215 0
-12.1108 69.1251 -35.4308 0
-12.4588 72.5818 -36.3771 0
-12.8073 71.917 -36.3211 0
-12.2085 73.2259 -36.4895 0
-11.7609 72.3212 -35.8599 0
-11.3478 71.4017 -35.0571 0
-11.7589 70.1505 -35.0875 0
-11.1935 69.1733 -34.7248 0
-12.3187 71.0566 -35.5755 0
-11.6118 70.7437 -34.9185 0
-10.7393 70.3484 -34.608 0
-10.4344 68.7072 -34.2561 0
-10.5224 68.1818 -34.3941 0
-10.27 69.2678 -34.2746 0
-9.55058 68.2044 -33.9344 0
-10.3928 66.2769 -34.077 0
-9.43513 64.9543 -33.0244 0
-8.68123 64.0151 -32.3225 0
-8.83126 64.7212 -32.5376 0
-12.3194 68.2503 -35.6614 0
-11.3659 67.4597 -35.0501 0
-13.2498 69.0593 -36.2715 0
-12.2763 68.6612 -35.5934 0
-11.4126 68.2444 -34.9666 0
-9.69513 66.1492 -33.4263 0
-8.90529 65.3813 -32.7053 0
-10.5885 66.7608 -34.1992 0
-10.6152 67.2673 -34.2624 0
-10.5893 67.6914 -34.2571 0
-8.90951 65.9902 -33.0296 0
-9.70568 67.1811 -33.7629 0
-8.91683 59.9207 -32.4332 0
-8.00954 58.0565 -31.5143 0
-10.2572 64.0734 -35.2886 0
-10.1661 62.5181 -33.6409 0
-10.4341 65.0372 -36.6141 0
-10.4019 64.8896 -35.5506 0
-10.1136 64.4178 -34.1463 0
-8.5471 60.0777 -31.7877 0
-9.37554 61.1378 -32.4323 0
-9.37928 62.241 -32.6379 0
-9.33397 63.103 -32.793 0
-8.6297 61.9899 -32.044 0
-7.41921 57.0542 -47.4647 0
-6.70012 56.8139 -47.512 0
-8.4502 57.2847 -47.4139 0
-8.05033 57.2051 -47.5191 0
-7.6087 56.4736 -47.4395 0
-7.61138 55.9183 -47.1481 0
-7.18349 55.7944 -47.3774 0
-9.22216 57.0695 -47.3084 0
-8.83861 57.1799 -47.4292 0
-10.0797 56.9305 -46.4987 0
-9.64475 56.9782 -46.9059 0
-9.32156 56.4761 -46.4599 0
-9.39445 55.9283 -45.7334 0
-9.06882 55.916 -46.1343 0
-8.15876 55.941 -46.7886 0
-7.78441 55.2255 -46.6037 0
-8.48948 56.6565 -47.1629 0
-8.63293 55.9485 -46.4549 0
-8.71889 55.2714 -45.9128 0
-7.93509 54.5489 -46.1865 0
-7.551 54.5144 -46.6029 0
-8.7019 54.5987 -45.4041 0
-8.3189 54.5641 -45.7942 0
-8.18025 53.8545 -45.5361 0
-8.43484 53.2077 -44.7417 0
-8.26057 53.1113 -45.3126 0
-10.7971 56.9939 -45.6341 0
-10.4895 56.9316 -46.0778 0
-11.3507 57.22 -44.5669 0
-11.0848 57.079 -45.1592 0
-10.6574 56.6071 -44.8546 0
-10.6391 56.0367 -44.0989 0
-10.3094 56.0981 -44.5142 0
-12.124 57.0924 -43.5339 0
-11.707 57.2116 -44.0315 0
-12.7431 56.7098 -43.0659 0
-12.453 56.9104 -43.2615 0
-12.2424 56.2742 -42.9785 0
-11.7658 55.8618 -42.4981 0
-11.769 55.7573 -42.7776 0
-10.9498 55.9802 -43.7016 0
-10.6279 55.3291 -43.3791 0
-11.3812 56.5281 -43.953 0
-11.3457 55.8774 -43.2474 0
-11.0516 55.3574 -42.6466 0
-10.486 54.6475 -42.7488 0
-10.2857 54.5957 -43.1311 0
-10.621 54.9758 -42.0138 0
-10.5534 54.8146 -42.3776 0
-9.9804 54.3495 -42.0806 0
-9.4177 54.2113 -41.3437 0
-9.35539 54.0395 -41.6692 0
-8.66897 53.2404 -44.1794 0
-8.59005 52.6643 -43.7364 0
-9.06996 54.66 -45.0147 0
-8.85644 53.9174 -44.655 0
-8.91566 53.2648 -43.6495 0
-9.14662 53.3033 -43.1438 0
-8.80876 52.9146 -42.7113 0
-9.6991 55.9737 -45.3172 0
-9.3855 55.3647 -45.0954 0
-10.0406 56.4785 -45.6818 0
-9.99839 56.0432 -44.9092 0
-9.98023 55.4354 -44.1974 0
-9.38732 53.9537 -43.6474 0
-9.21945 53.4585 -42.7219 0
-9.38822 54.6558 -44.5386 0
-9.68818 54.6334 -44.0497 0
-9.98379 54.6231 -43.561 0
-9.25582 53.6543 -42.3655 0
-8.8099 53.2841 -41.889 0
-9.85679 54.0087 -42.7899 0
-9.30523 53.844 -42.0101 0
-8.87756 53.6692 -41.2323 0
-8.56605 52.3537 -42.8007 0
-8.58322 52.1567 -43.3137 0
-8.51805 52.7304 -41.9043 0
-8.52729 52.5475 -42.3315 0
-8.38899 52.145 -41.9949 0
-8.325 51.9244 -41.223 0
-8.50407 51.7309 -41.6141 0
-8.44927 53.1173 -41.1539 0
-8.50907 52.916 -41.516 0
-8.23039 53.6148 -40.4872 0
-8.28343 53.3584 -40.8185 0
-7.85015 53.0361 -40.5155 0
-7.29383 52.7986 -39.9375 0
-7.49331 52.5186 -40.2545 0
-8.01188 52.1012 -40.8856 0
-7.8758 51.6218 -40.6194 0
-8.22716 52.5492 -41.1726 0
-7.71274 52.2803 -40.5746 0
-7.25652 52.0219 -39.9985 0
-7.43836 51.3091 -40.0692 0
-7.74147 51.1351 -40.3718 0
-7.32898 51.6334 -39.4199 0
-7.33943 51.4741 -39.7367 0
-7.46731 51.0299 -39.4368 0
-12.3202 57.1803 -42.7693 0
-12.6401 56.8268 -42.9267 0
-11.5547 58.4945 -42.1141 0
-11.919 57.8263 -42.4493 0
-11.6303 57.0542 -42.3242 0
-11.0741 56.8873 -41.7224 0
-11.2064 56.5299 -42.029 0
-11.5925 59.0868 -41.2953 0
-11.4617 58.9238 -41.733 0
-11.9287 59.3046 -40.3177 0
-11.7309 59.2548 -40.8485 0
-11.2036 58.6461 -40.8832 0
-10.999 58.0806 -40.2774 0
-10.808 58.0001 -40.7005 0
-10.9491 57.2723 -41.4 0
-10.5548 56.6988 -41.0508 0
-11.2631 57.9808 -41.6565 0
-10.832 57.6732 -41.0606 0
-10.5075 57.3176 -40.352 0
-10.1236 56.538 -40.2878 0
-10.2696 56.1857 -40.5694 0
-10.3594 56.9192 -39.6186 0
-10.2087 56.7631 -39.9836 0
-10.017 56.1898 -39.5252 0
-9.72589 55.9498 -38.7899 0
-9.66412 55.74 -39.0741 0
-12.2703 58.8739 -38.9809 0
-12.1203 59.1175 -39.679 0
-12.2716 58.147 -36.719 0
-12.358 58.5735 -37.9976 0
-12.0595 58.2775 -38.3013 0
-11.8914 57.7128 -37.4973 0
-11.6955 57.9017 -38.4603 0
-12.4987 58.0517 -35.2076 0
-13.3889 57.467 -32.7238 0
-12.3324 57.5229 -36.5538 0
-12.1841 57.1952 -36.8842 0
-12.3888 57.8159 -36.0166 0
-12.8089 57.3681 -35.3312 0
-12.1341 56.7858 -37.3052 0
-9.86018 56.1216 -38.5099 0
-9.5658 55.6439 -38.1379 0
-10.5017 57.0534 -39.2426 0
-10.1728 56.5996 -38.8821 0
-10.1558 56.21 -38.2462 0
-10.5429 56.2272 -38.0293 0
-10.1643 55.8144 -37.5465 0
-11.1929 58.0522 -39.7912 0
-10.8258 57.588 -39.5938 0
-11.6785 58.6416 -39.7957 0
-11.4074 58.0118 -39.2191 0
-11.3633 57.5123 -38.5441 0
-10.8973 56.6557 -38.49 0
-11.1046 56.1056 -37.8203 0
-10.7536 57.1159 -38.9872 0
-11.0808 57.0926 -38.5587 0
-11.4147 57.0044 -37.8703 0
-11.8918 55.8026 -37.5842 0
-11.5673 55.3288 -37.2795 0
-12.1547 56.3552 -37.5914 0
-9.53228 55.2168 -37.5373 0
-9.2937 55.0824 -37.8613 0
-10.5329 55.1809 -37.0723 0
-9.90117 55.269 -37.2303 0
-9.73701 54.7335 -36.8857 0
-9.60639 54.1993 -36.5939 0
-7.31253 51.7929 -39.1109 0
-7.29471 51.3321 -38.7827 0
-7.22813 53.0285 -39.6329 0
-7.26066 52.3405 -39.4291 0
-8.1658 53.8863 -40.1599 0
-7.52204 53.5475 -39.8678 0
-7.35934 53.1792 -39.352 0
-7.53338 53.3118 -39.082 0
-7.46805 52.6668 -38.8869 0
-7.33707 51.6957 -38.1618 0
-7.30602 51.9488 -38.8054 0
-7.40474 52.11 -38.5422 0
-7.52649 52.3053 -38.2682 0
-7.72696 52.543 -37.9776 0
-7.70252 52.1616 -37.5601 0
-7.80008 52.2129 -36.7391 0
-9.41368 54.4553 -40.9962 0
-8.73509 54.1957 -40.5645 0
-10.5925 55.1113 -41.7632 0
-10.1267 54.6378 -41.4209 0
-9.39096 54.713 -40.6529 0
-9.35492 54.9878 -40.3089 0
-8.65627 54.7566 -39.9054 0
-11.7439 55.9773 -42.229 0
-10.9491 55.6207 -42.1681 0
-12.185 56.5029 -42.5292 0
-11.4745 56.2484 -42.1306 0
-10.8093 55.9937 -41.6524 0
-10.0787 55.1443 -40.7539 0
-9.30575 55.2658 -39.9913 0
-10.5423 55.2501 -41.534 0
-10.4879 55.5376 -41.1861 0
-10.423 55.8312 -40.8484 0
-9.32403 55.4922 -39.6881 0
-8.89974 55.0879 -39.2982 0
-9.95685 55.7144 -40.108 0
-9.49839 55.6139 -39.384 0
-9.17132 55.3824 -38.7127 0
-8.10825 52.5749 -36.9842 0
-7.75707 52.9776 -38.3186 0
-7.92914 52.7617 -37.6875 0
-8.1104 52.9262 -37.3801 0
-8.16754 53.3335 -37.7081 0
-8.30609 53.087 -37.0483 0
-7.77193 53.8764 -39.2926 0
-7.72353 53.4361 -38.8123 0
-8.08372 54.1654 -39.8275 0
