#!ascii - generated by CreateLabelFiles project 
2269 4259
527 130 516 0
527 516 528 0
135 527 528 0
529 513 130 0
520 34 513 0
520 513 529 0
134 520 529 0
530 527 135 0
529 130 527 0
529 527 530 0
134 529 530 0
531 530 135 0
526 134 530 0
526 530 531 0
35 526 531 0
533 528 36 0
532 135 528 0
532 528 533 0
137 532 533 0
535 531 135 0
534 35 531 0
534 531 535 0
136 534 535 0
536 532 137 0
535 135 532 0
535 532 536 0
136 535 536 0
538 536 137 0
537 136 536 0
537 536 538 0
11 537 538 0
541 539 9 0
540 138 539 0
540 539 541 0
140 540 541 0
544 542 138 0
543 37 542 0
543 542 544 0
139 543 544 0
545 540 140 0
544 138 540 0
544 540 545 0
139 544 545 0
547 545 140 0
546 139 545 0
546 545 547 0
39 546 547 0
550 548 37 0
549 141 548 0
549 548 550 0
143 549 550 0
553 551 141 0
552 0 551 0
552 551 553 0
142 552 553 0
554 549 143 0
553 141 549 0
553 549 554 0
142 553 554 0
556 554 143 0
555 142 554 0
555 554 556 0
38 555 556 0
558 546 39 0
557 139 546 0
557 546 558 0
144 557 558 0
559 543 139 0
550 37 543 0
550 543 559 0
143 550 559 0
560 557 144 0
559 139 557 0
559 557 560 0
143 559 560 0
561 560 144 0
556 143 560 0
556 560 561 0
38 556 561 0
563 558 39 0
562 144 558 0
562 558 563 0
146 562 563 0
565 561 144 0
564 38 561 0
564 561 565 0
145 564 565 0
566 562 146 0
565 144 562 0
565 562 566 0
145 565 566 0
568 566 146 0
567 145 566 0
567 566 568 0
10 567 568 0
570 537 11 0
569 136 537 0
569 537 570 0
148 569 570 0
572 534 136 0
571 35 534 0
571 534 572 0
147 571 572 0
573 569 148 0
572 136 569 0
572 569 573 0
147 572 573 0
575 573 148 0
574 147 573 0
574 573 575 0
40 574 575 0
577 525 35 0
576 133 525 0
576 525 577 0
149 576 577 0
578 522 133 0
541 9 522 0
541 522 578 0
140 541 578 0
579 576 149 0
578 133 576 0
578 576 579 0
140 578 579 0
580 579 149 0
547 140 579 0
547 579 580 0
39 547 580 0
582 574 40 0
581 147 574 0
581 574 582 0
150 581 582 0
583 571 147 0
577 35 571 0
577 571 583 0
149 577 583 0
584 581 150 0
583 147 581 0
583 581 584 0
149 583 584 0
585 584 150 0
580 149 584 0
580 584 585 0
39 580 585 0
587 582 40 0
586 150 582 0
586 582 587 0
151 586 587 0
588 585 150 0
563 39 585 0
563 585 588 0
146 563 588 0
589 586 151 0
588 150 586 0
588 586 589 0
146 588 589 0
590 589 151 0
568 146 589 0
568 589 590 0
10 568 590 0
592 570 11 0
591 148 570 0
591 570 592 0
153 591 592 0
594 575 148 0
593 40 575 0
593 575 594 0
152 593 594 0
595 591 153 0
594 148 591 0
594 591 595 0
152 594 595 0
597 595 153 0
596 152 595 0
596 595 597 0
42 596 597 0
599 587 40 0
598 151 587 0
598 587 599 0
155 598 599 0
601 590 151 0
600 10 590 0
600 590 601 0
154 600 601 0
602 598 155 0
601 151 598 0
601 598 602 0
154 601 602 0
604 602 155 0
603 154 602 0
603 602 604 0
41 603 604 0
606 596 42 0
605 152 596 0
605 596 606 0
156 605 606 0
607 593 152 0
599 40 593 0
599 593 607 0
155 599 607 0
608 605 156 0
607 152 605 0
607 605 608 0
155 607 608 0
609 608 156 0
604 155 608 0
604 608 609 0
41 604 609 0
611 606 42 0
610 156 606 0
610 606 611 0
158 610 611 0
613 609 156 0
612 41 609 0
612 609 613 0
157 612 613 0
614 610 158 0
613 156 610 0
613 610 614 0
157 613 614 0
616 614 158 0
615 157 614 0
615 614 616 0
3 615 616 0
618 2009 4 0
617 128 2009 0
617 2009 618 0
160 617 618 0
620 508 128 0
619 2005 508 0
619 508 620 0
159 619 620 0
621 617 160 0
620 128 617 0
620 617 621 0
159 620 621 0
623 621 160 0
622 159 621 0
622 621 623 0
44 622 623 0
625 507 2005 0
624 2002 507 0
624 507 625 0
162 624 625 0
627 506 2002 0
626 8 506 0
626 506 627 0
161 626 627 0
628 624 162 0
627 2002 624 0
627 624 628 0
161 627 628 0
630 628 162 0
629 161 628 0
629 628 630 0
43 629 630 0
632 622 44 0
631 159 622 0
631 622 632 0
163 631 632 0
633 619 159 0
625 2005 619 0
625 619 633 0
162 625 633 0
634 631 163 0
633 159 631 0
633 631 634 0
162 633 634 0
635 634 163 0
630 162 634 0
630 634 635 0
43 630 635 0
637 632 44 0
636 163 632 0
636 632 637 0
165 636 637 0
639 635 163 0
638 43 635 0
638 635 639 0
164 638 639 0
640 636 165 0
639 163 636 0
639 636 640 0
164 639 640 0
642 640 165 0
641 164 640 0
641 640 642 0
12 641 642 0
644 505 8 0
643 127 505 0
643 505 644 0
167 643 644 0
646 504 127 0
645 33 504 0
645 504 646 0
166 645 646 0
647 643 167 0
646 127 643 0
646 643 647 0
166 646 647 0
649 647 167 0
648 166 647 0
648 647 649 0
45 648 649 0
651 503 33 0
650 126 503 0
650 503 651 0
168 650 651 0
652 501 126 0
511 2 501 0
511 501 652 0
131 511 652 0
653 650 168 0
652 126 650 0
652 650 653 0
131 652 653 0
654 653 168 0
517 131 653 0
517 653 654 0
36 517 654 0
656 648 45 0
655 166 648 0
655 648 656 0
169 655 656 0
657 645 166 0
651 33 645 0
651 645 657 0
168 651 657 0
658 655 169 0
657 166 655 0
657 655 658 0
168 657 658 0
659 658 169 0
654 168 658 0
654 658 659 0
36 654 659 0
661 656 45 0
660 169 656 0
660 656 661 0
170 660 661 0
662 659 169 0
533 36 659 0
533 659 662 0
137 533 662 0
663 660 170 0
662 169 660 0
662 660 663 0
137 662 663 0
664 663 170 0
538 137 663 0
538 663 664 0
11 538 664 0
666 641 12 0
665 164 641 0
665 641 666 0
172 665 666 0
668 638 164 0
667 43 638 0
667 638 668 0
171 667 668 0
669 665 172 0
668 164 665 0
668 665 669 0
171 668 669 0
671 669 172 0
670 171 669 0
670 669 671 0
46 670 671 0
673 629 43 0
672 161 629 0
672 629 673 0
173 672 673 0
674 626 161 0
644 8 626 0
644 626 674 0
167 644 674 0
675 672 173 0
674 161 672 0
674 672 675 0
167 674 675 0
676 675 173 0
649 167 675 0
649 675 676 0
45 649 676 0
678 670 46 0
677 171 670 0
677 670 678 0
174 677 678 0
679 667 171 0
673 43 667 0
673 667 679 0
173 673 679 0
680 677 174 0
679 171 677 0
679 677 680 0
173 679 680 0
681 680 174 0
676 173 680 0
676 680 681 0
45 676 681 0
683 678 46 0
682 174 678 0
682 678 683 0
175 682 683 0
684 681 174 0
661 45 681 0
661 681 684 0
170 661 684 0
685 682 175 0
684 174 682 0
684 682 685 0
170 684 685 0
686 685 175 0
664 170 685 0
664 685 686 0
11 664 686 0
688 666 12 0
687 172 666 0
687 666 688 0
177 687 688 0
690 671 172 0
689 46 671 0
689 671 690 0
176 689 690 0
691 687 177 0
690 172 687 0
690 687 691 0
176 690 691 0
693 691 177 0
692 176 691 0
692 691 693 0
47 692 693 0
695 683 46 0
694 175 683 0
694 683 695 0
178 694 695 0
696 686 175 0
592 11 686 0
592 686 696 0
153 592 696 0
697 694 178 0
696 175 694 0
696 694 697 0
153 696 697 0
698 697 178 0
597 153 697 0
597 697 698 0
42 597 698 0
700 692 47 0
699 176 692 0
699 692 700 0
179 699 700 0
701 689 176 0
695 46 689 0
695 689 701 0
178 695 701 0
702 699 179 0
701 176 699 0
701 699 702 0
178 701 702 0
703 702 179 0
698 178 702 0
698 702 703 0
42 698 703 0
705 700 47 0
704 179 700 0
704 700 705 0
180 704 705 0
706 703 179 0
611 42 703 0
611 703 706 0
158 611 706 0
707 704 180 0
706 179 704 0
706 704 707 0
158 706 707 0
708 707 180 0
616 158 707 0
616 707 708 0
3 616 708 0
710 618 4 0
709 160 618 0
709 618 710 0
182 709 710 0
712 623 160 0
711 44 623 0
711 623 712 0
181 711 712 0
713 709 182 0
712 160 709 0
712 709 713 0
181 712 713 0
715 713 182 0
714 181 713 0
714 713 715 0
49 714 715 0
717 637 44 0
716 165 637 0
716 637 717 0
184 716 717 0
719 642 165 0
718 12 642 0
718 642 719 0
183 718 719 0
720 716 184 0
719 165 716 0
719 716 720 0
183 719 720 0
722 720 184 0
721 183 720 0
721 720 722 0
48 721 722 0
724 714 49 0
723 181 714 0
723 714 724 0
185 723 724 0
725 711 181 0
717 44 711 0
717 711 725 0
184 717 725 0
726 723 185 0
725 181 723 0
725 723 726 0
184 725 726 0
727 726 185 0
722 184 726 0
722 726 727 0
48 722 727 0
729 724 49 0
728 185 724 0
728 724 729 0
187 728 729 0
731 727 185 0
730 48 727 0
730 727 731 0
186 730 731 0
732 728 187 0
731 185 728 0
731 728 732 0
186 731 732 0
734 732 187 0
733 186 732 0
733 732 734 0
13 733 734 0
736 688 12 0
735 177 688 0
735 688 736 0
189 735 736 0
738 693 177 0
737 47 693 0
737 693 738 0
188 737 738 0
739 735 189 0
738 177 735 0
738 735 739 0
188 738 739 0
741 739 189 0
740 188 739 0
740 739 741 0
50 740 741 0
743 705 47 0
742 180 705 0
742 705 743 0
191 742 743 0
745 708 180 0
744 3 708 0
744 708 745 0
190 744 745 0
746 742 191 0
745 180 742 0
745 742 746 0
190 745 746 0
747 746 191 0
2011 190 746 0
2011 746 747 0
2012 2011 747 0
749 740 50 0
748 188 740 0
748 740 749 0
192 748 749 0
750 737 188 0
743 47 737 0
743 737 750 0
191 743 750 0
751 748 192 0
750 188 748 0
750 748 751 0
191 750 751 0
752 751 192 0
747 191 751 0
747 751 752 0
2012 747 752 0
754 749 50 0
753 192 749 0
753 749 754 0
2013 753 754 0
2014 752 192 0
2015 2012 752 0
2015 752 2014 0
2016 753 2013 0
2014 192 753 0
2014 753 2016 0
756 733 13 0
755 186 733 0
755 733 756 0
194 755 756 0
758 730 186 0
757 48 730 0
757 730 758 0
193 757 758 0
759 755 194 0
758 186 755 0
758 755 759 0
193 758 759 0
761 759 194 0
760 193 759 0
760 759 761 0
51 760 761 0
763 721 48 0
762 183 721 0
762 721 763 0
195 762 763 0
764 718 183 0
736 12 718 0
736 718 764 0
189 736 764 0
765 762 195 0
764 183 762 0
764 762 765 0
189 764 765 0
766 765 195 0
741 189 765 0
741 765 766 0
50 741 766 0
768 760 51 0
767 193 760 0
767 760 768 0
196 767 768 0
769 757 193 0
763 48 757 0
763 757 769 0
195 763 769 0
770 767 196 0
769 193 767 0
769 767 770 0
195 769 770 0
771 770 196 0
766 195 770 0
766 770 771 0
50 766 771 0
773 768 51 0
772 196 768 0
772 768 773 0
2017 772 773 0
774 771 196 0
754 50 771 0
754 771 774 0
2013 754 774 0
2018 772 2017 0
774 196 772 0
774 772 2018 0
2013 774 2018 0
776 756 13 0
775 194 756 0
775 756 776 0
197 775 776 0
778 761 194 0
777 51 761 0
777 761 778 0
2019 777 778 0
779 775 197 0
778 194 775 0
778 775 779 0
2019 778 779 0
781 779 197 0
780 2019 779 0
780 779 781 0
2020 780 781 0
2021 773 51 0
2022 2017 773 0
2022 773 2021 0
2023 780 2020 0
2024 2019 780 0
2024 780 2023 0
2025 777 2019 0
2021 51 777 0
2021 777 2025 0
4 2010 2026 0
782 2027 2028 0
2029 2027 782 0
2030 2029 782 0
783 2031 2030 0
2032 2031 783 0
198 2032 783 0
2033 2032 198 0
784 2033 198 0
2034 2033 784 0
52 2034 784 0
2035 2034 52 0
785 2035 52 0
2036 2035 785 0
199 2036 785 0
2037 2036 199 0
2038 2037 199 0
4 2026 2038 0
201 2039 2040 0
787 782 2028 0
786 2030 782 0
786 782 787 0
200 786 787 0
788 2039 201 0
787 2028 2039 0
787 2039 788 0
200 787 788 0
790 788 201 0
789 200 788 0
789 788 790 0
53 789 790 0
791 2041 2042 0
2043 2041 791 0
202 2043 791 0
792 2044 2045 0
2040 2044 792 0
201 2040 792 0
793 2043 202 0
792 2045 2043 0
792 2043 793 0
201 792 793 0
794 793 202 0
790 201 793 0
790 793 794 0
53 790 794 0
796 791 2042 0
795 202 791 0
795 791 796 0
204 795 796 0
798 794 202 0
797 53 794 0
797 794 798 0
203 797 798 0
799 795 204 0
798 202 795 0
798 795 799 0
203 798 799 0
801 799 204 0
800 203 799 0
800 799 801 0
14 800 801 0
803 783 2030 0
802 198 783 0
802 783 803 0
206 802 803 0
805 784 198 0
804 52 784 0
804 784 805 0
205 804 805 0
806 802 206 0
805 198 802 0
805 802 806 0
205 805 806 0
808 806 206 0
807 205 806 0
807 806 808 0
54 807 808 0
810 785 52 0
809 199 785 0
809 785 810 0
207 809 810 0
811 2038 199 0
710 4 2038 0
710 2038 811 0
182 710 811 0
812 809 207 0
811 199 809 0
811 809 812 0
182 811 812 0
813 812 207 0
715 182 812 0
715 812 813 0
49 715 813 0
815 807 54 0
814 205 807 0
814 807 815 0
208 814 815 0
816 804 205 0
810 52 804 0
810 804 816 0
207 810 816 0
817 814 208 0
816 205 814 0
816 814 817 0
207 816 817 0
818 817 208 0
813 207 817 0
813 817 818 0
49 813 818 0
820 815 54 0
819 208 815 0
819 815 820 0
209 819 820 0
821 818 208 0
729 49 818 0
729 818 821 0
187 729 821 0
822 819 209 0
821 208 819 0
821 819 822 0
187 821 822 0
823 822 209 0
734 187 822 0
734 822 823 0
13 734 823 0
825 800 14 0
824 203 800 0
824 800 825 0
211 824 825 0
827 797 203 0
826 53 797 0
826 797 827 0
210 826 827 0
828 824 211 0
827 203 824 0
827 824 828 0
210 827 828 0
830 828 211 0
829 210 828 0
829 828 830 0
55 829 830 0
832 789 53 0
831 200 789 0
831 789 832 0
212 831 832 0
833 786 200 0
803 2030 786 0
803 786 833 0
206 803 833 0
834 831 212 0
833 200 831 0
833 831 834 0
206 833 834 0
835 834 212 0
808 206 834 0
808 834 835 0
54 808 835 0
837 829 55 0
836 210 829 0
836 829 837 0
213 836 837 0
838 826 210 0
832 53 826 0
832 826 838 0
212 832 838 0
839 836 213 0
838 210 836 0
838 836 839 0
212 838 839 0
840 839 213 0
835 212 839 0
835 839 840 0
54 835 840 0
842 837 55 0
841 213 837 0
841 837 842 0
214 841 842 0
843 840 213 0
820 54 840 0
820 840 843 0
209 820 843 0
844 841 214 0
843 213 841 0
843 841 844 0
209 843 844 0
845 844 214 0
823 209 844 0
823 844 845 0
13 823 845 0
847 825 14 0
846 211 825 0
846 825 847 0
2046 846 847 0
849 830 211 0
848 55 830 0
848 830 849 0
215 848 849 0
850 846 2046 0
849 211 846 0
849 846 850 0
215 849 850 0
2047 850 2046 0
2048 215 850 0
2048 850 2047 0
852 842 55 0
851 214 842 0
851 842 852 0
216 851 852 0
853 845 214 0
776 13 845 0
776 845 853 0
197 776 853 0
854 851 216 0
853 214 851 0
853 851 854 0
197 853 854 0
855 854 216 0
781 197 854 0
781 854 855 0
2020 781 855 0
2049 215 2048 0
856 848 215 0
852 55 848 0
852 848 856 0
216 852 856 0
857 2049 2050 0
856 215 2049 0
856 2049 857 0
216 856 857 0
2051 857 2050 0
855 216 857 0
855 857 2051 0
2020 855 2051 0
2052 796 2042 0
858 204 796 0
858 796 2052 0
2053 858 2052 0
860 801 204 0
859 14 801 0
859 801 860 0
217 859 860 0
861 858 2053 0
860 204 858 0
860 858 861 0
217 860 861 0
2054 861 2053 0
2055 217 861 0
2055 861 2054 0
2056 847 14 0
2057 2046 847 0
2057 847 2056 0
2058 217 2055 0
2059 859 217 0
2056 14 859 0
2056 859 2059 0
2059 217 2058 0
864 862 0 0
863 218 862 0
863 862 864 0
220 863 864 0
867 865 218 0
866 56 865 0
866 865 867 0
219 866 867 0
868 863 220 0
867 218 863 0
867 863 868 0
219 867 868 0
870 868 220 0
869 219 868 0
869 868 870 0
58 869 870 0
873 871 56 0
872 221 871 0
872 871 873 0
223 872 873 0
876 874 221 0
875 15 874 0
875 874 876 0
222 875 876 0
877 872 223 0
876 221 872 0
876 872 877 0
222 876 877 0
879 877 223 0
878 222 877 0
878 877 879 0
57 878 879 0
881 869 58 0
880 219 869 0
880 869 881 0
224 880 881 0
882 866 219 0
873 56 866 0
873 866 882 0
223 873 882 0
883 880 224 0
882 219 880 0
882 880 883 0
223 882 883 0
884 883 224 0
879 223 883 0
879 883 884 0
57 879 884 0
886 881 58 0
885 224 881 0
885 881 886 0
225 885 886 0
888 884 224 0
887 57 884 0
887 884 888 0
2060 887 888 0
889 885 225 0
888 224 885 0
888 885 889 0
2060 888 889 0
2061 889 225 0
2062 2060 889 0
2062 889 2061 0
892 890 15 0
891 226 890 0
891 890 892 0
227 891 892 0
2063 2064 226 0
2065 891 227 0
2063 226 891 0
2063 891 2065 0
2066 2065 227 0
2067 887 2060 0
2068 57 887 0
2068 887 2067 0
894 878 57 0
893 222 878 0
893 878 894 0
2069 893 894 0
895 875 222 0
892 15 875 0
892 875 895 0
227 892 895 0
2070 893 2069 0
895 222 893 0
895 893 2070 0
227 895 2070 0
2066 227 2070 0
894 57 2068 0
894 2068 2071 0
2069 894 2071 0
2072 190 2011 0
2073 744 190 0
2074 3 744 0
2074 744 2073 0
2073 190 2072 0
897 615 3 0
896 157 615 0
896 615 897 0
2075 896 897 0
899 612 157 0
898 41 612 0
898 612 899 0
228 898 899 0
2076 896 2075 0
899 157 896 0
899 896 2076 0
228 899 2076 0
2077 228 2076 0
901 603 41 0
900 154 603 0
900 603 901 0
230 900 901 0
903 600 154 0
902 10 600 0
902 600 903 0
229 902 903 0
904 900 230 0
903 154 900 0
903 900 904 0
229 903 904 0
906 904 230 0
905 229 904 0
905 904 906 0
2078 905 906 0
2079 228 2077 0
907 898 228 0
901 41 898 0
901 898 907 0
230 901 907 0
907 228 2079 0
907 2079 2080 0
230 907 2080 0
906 230 2080 0
906 2080 2081 0
2078 906 2081 0
909 567 10 0
908 145 567 0
908 567 909 0
232 908 909 0
911 564 145 0
910 38 564 0
910 564 911 0
231 910 911 0
912 908 232 0
911 145 908 0
911 908 912 0
231 911 912 0
914 912 232 0
913 231 912 0
913 912 914 0
59 913 914 0
916 555 38 0
915 142 555 0
915 555 916 0
233 915 916 0
917 552 142 0
864 0 552 0
864 552 917 0
220 864 917 0
918 915 233 0
917 142 915 0
917 915 918 0
220 917 918 0
919 918 233 0
870 220 918 0
870 918 919 0
58 870 919 0
921 913 59 0
920 231 913 0
920 913 921 0
234 920 921 0
922 910 231 0
916 38 910 0
916 910 922 0
233 916 922 0
923 920 234 0
922 231 920 0
922 920 923 0
233 922 923 0
924 923 234 0
919 233 923 0
919 923 924 0
58 919 924 0
926 921 59 0
925 234 921 0
925 921 926 0
235 925 926 0
927 924 234 0
886 58 924 0
886 924 927 0
225 886 927 0
928 925 235 0
927 234 925 0
927 925 928 0
225 927 928 0
2082 928 235 0
2061 225 928 0
2061 928 2082 0
930 905 2078 0
929 229 905 0
929 905 930 0
236 929 930 0
931 902 229 0
909 10 902 0
909 902 931 0
232 909 931 0
932 929 236 0
931 229 929 0
931 929 932 0
232 931 932 0
933 932 236 0
914 232 932 0
914 932 933 0
59 914 933 0
930 2078 2083 0
930 2083 2084 0
236 930 2084 0
934 2085 2086 0
2084 2085 934 0
236 2084 934 0
935 934 2086 0
933 236 934 0
933 934 935 0
59 933 935 0
2087 935 2086 0
926 59 935 0
926 935 2087 0
235 926 2087 0
235 2087 2088 0
2082 235 2088 0
897 3 2074 0
897 2074 2089 0
2075 897 2089 0
500 2090 1992 0
936 2091 2090 0
936 2090 500 0
2 936 500 0
937 936 2 0
2092 2091 936 0
2092 936 937 0
237 2092 937 0
938 2092 237 0
2093 2092 938 0
2094 2093 938 0
940 938 237 0
939 2094 938 0
939 938 940 0
60 939 940 0
941 939 60 0
2095 2094 939 0
2095 939 941 0
2096 2095 941 0
943 941 60 0
942 2096 941 0
942 941 943 0
238 942 943 0
2097 942 238 0
2098 2096 942 0
2098 942 2097 0
944 2097 238 0
2099 2097 944 0
16 2099 944 0
945 2099 16 0
2100 2099 945 0
2101 2100 945 0
946 945 16 0
2102 2101 945 0
2102 945 946 0
239 2102 946 0
2103 2102 239 0
947 2103 239 0
2104 2103 947 0
61 2104 947 0
2105 2104 61 0
948 2105 61 0
2106 2105 948 0
240 2106 948 0
2107 2106 240 0
949 2107 240 0
2108 2107 949 0
2109 2108 949 0
509 937 2 0
950 237 937 0
950 937 509 0
129 950 509 0
952 940 237 0
951 60 940 0
951 940 952 0
241 951 952 0
953 950 129 0
952 237 950 0
952 950 953 0
241 952 953 0
512 953 129 0
954 241 953 0
954 953 512 0
34 954 512 0
956 943 60 0
955 238 943 0
955 943 956 0
243 955 956 0
958 944 238 0
957 16 944 0
957 944 958 0
242 957 958 0
959 955 243 0
958 238 955 0
958 955 959 0
242 958 959 0
961 959 243 0
960 242 959 0
960 959 961 0
62 960 961 0
963 954 34 0
962 241 954 0
962 954 963 0
244 962 963 0
964 951 241 0
956 60 951 0
956 951 964 0
243 956 964 0
965 962 244 0
964 241 962 0
964 962 965 0
243 964 965 0
966 965 244 0
961 243 965 0
961 965 966 0
62 961 966 0
518 963 34 0
967 244 963 0
967 963 518 0
132 967 518 0
969 966 244 0
968 62 966 0
968 966 969 0
245 968 969 0
970 967 132 0
969 244 967 0
969 967 970 0
245 969 970 0
521 970 132 0
971 245 970 0
971 970 521 0
9 971 521 0
973 946 16 0
972 239 946 0
972 946 973 0
247 972 973 0
975 947 239 0
974 61 947 0
974 947 975 0
246 974 975 0
976 972 247 0
975 239 972 0
975 972 976 0
246 975 976 0
978 976 247 0
977 246 976 0
977 976 978 0
64 977 978 0
980 948 61 0
979 240 948 0
979 948 980 0
249 979 980 0
982 949 240 0
981 2109 949 0
981 949 982 0
248 981 982 0
983 979 249 0
982 240 979 0
982 979 983 0
248 982 983 0
985 983 249 0
984 248 983 0
984 983 985 0
63 984 985 0
987 977 64 0
986 246 977 0
986 977 987 0
250 986 987 0
988 974 246 0
980 61 974 0
980 974 988 0
249 980 988 0
989 986 250 0
988 246 986 0
988 986 989 0
249 988 989 0
990 989 250 0
985 249 989 0
985 989 990 0
63 985 990 0
992 987 64 0
991 250 987 0
991 987 992 0
252 991 992 0
994 990 250 0
993 63 990 0
993 990 994 0
251 993 994 0
995 991 252 0
994 250 991 0
994 991 995 0
251 994 995 0
997 995 252 0
996 251 995 0
996 995 997 0
17 996 997 0
999 971 9 0
998 245 971 0
998 971 999 0
254 998 999 0
1001 968 245 0
1000 62 968 0
1000 968 1001 0
253 1000 1001 0
1002 998 254 0
1001 245 998 0
1001 998 1002 0
253 1001 1002 0
1004 1002 254 0
1003 253 1002 0
1003 1002 1004 0
65 1003 1004 0
1006 960 62 0
1005 242 960 0
1005 960 1006 0
255 1005 1006 0
1007 957 242 0
973 16 957 0
973 957 1007 0
247 973 1007 0
1008 1005 255 0
1007 242 1005 0
1007 1005 1008 0
247 1007 1008 0
1009 1008 255 0
978 247 1008 0
978 1008 1009 0
64 978 1009 0
1011 1003 65 0
1010 253 1003 0
1010 1003 1011 0
256 1010 1011 0
1012 1000 253 0
1006 62 1000 0
1006 1000 1012 0
255 1006 1012 0
1013 1010 256 0
1012 253 1010 0
1012 1010 1013 0
255 1012 1013 0
1014 1013 256 0
1009 255 1013 0
1009 1013 1014 0
64 1009 1014 0
1016 1011 65 0
1015 256 1011 0
1015 1011 1016 0
257 1015 1016 0
1017 1014 256 0
992 64 1014 0
992 1014 1017 0
252 992 1017 0
1018 1015 257 0
1017 256 1015 0
1017 1015 1018 0
252 1017 1018 0
1019 1018 257 0
997 252 1018 0
997 1018 1019 0
17 997 1019 0
539 999 9 0
1020 254 999 0
1020 999 539 0
138 1020 539 0
1022 1004 254 0
1021 65 1004 0
1021 1004 1022 0
258 1021 1022 0
1023 1020 138 0
1022 254 1020 0
1022 1020 1023 0
258 1022 1023 0
542 1023 138 0
1024 258 1023 0
1024 1023 542 0
37 1024 542 0
1026 1016 65 0
1025 257 1016 0
1025 1016 1026 0
260 1025 1026 0
1028 1019 257 0
1027 17 1019 0
1027 1019 1028 0
259 1027 1028 0
1029 1025 260 0
1028 257 1025 0
1028 1025 1029 0
259 1028 1029 0
1031 1029 260 0
1030 259 1029 0
1030 1029 1031 0
66 1030 1031 0
1033 1024 37 0
1032 258 1024 0
1032 1024 1033 0
261 1032 1033 0
1034 1021 258 0
1026 65 1021 0
1026 1021 1034 0
260 1026 1034 0
1035 1032 261 0
1034 258 1032 0
1034 1032 1035 0
260 1034 1035 0
1036 1035 261 0
1031 260 1035 0
1031 1035 1036 0
66 1031 1036 0
548 1033 37 0
1037 261 1033 0
1037 1033 548 0
141 1037 548 0
1039 1036 261 0
1038 66 1036 0
1038 1036 1039 0
262 1038 1039 0
1040 1037 141 0
1039 261 1037 0
1039 1037 1040 0
262 1039 1040 0
551 1040 141 0
1041 262 1040 0
1041 1040 551 0
0 1041 551 0
1043 1041 0 0
1042 262 1041 0
1042 1041 1043 0
264 1042 1043 0
1045 1038 262 0
1044 66 1038 0
1044 1038 1045 0
263 1044 1045 0
1046 1042 264 0
1045 262 1042 0
1045 1042 1046 0
263 1045 1046 0
1048 1046 264 0
1047 263 1046 0
1047 1046 1048 0
68 1047 1048 0
1050 1030 66 0
1049 259 1030 0
1049 1030 1050 0
266 1049 1050 0
1052 1027 259 0
1051 17 1027 0
1051 1027 1052 0
265 1051 1052 0
1053 1049 266 0
1052 259 1049 0
1052 1049 1053 0
265 1052 1053 0
1055 1053 266 0
1054 265 1053 0
1054 1053 1055 0
67 1054 1055 0
1057 1047 68 0
1056 263 1047 0
1056 1047 1057 0
267 1056 1057 0
1058 1044 263 0
1050 66 1044 0
1050 1044 1058 0
266 1050 1058 0
1059 1056 267 0
1058 263 1056 0
1058 1056 1059 0
266 1058 1059 0
1060 1059 267 0
1055 266 1059 0
1055 1059 1060 0
67 1055 1060 0
1062 1057 68 0
1061 267 1057 0
1061 1057 1062 0
269 1061 1062 0
1064 1060 267 0
1063 67 1060 0
1063 1060 1064 0
268 1063 1064 0
1065 1061 269 0
1064 267 1061 0
1064 1061 1065 0
268 1064 1065 0
1067 1065 269 0
1066 268 1065 0
1066 1065 1067 0
19 1066 1067 0
1069 996 17 0
1068 251 996 0
1068 996 1069 0
271 1068 1069 0
1071 993 251 0
1070 63 993 0
1070 993 1071 0
270 1070 1071 0
1072 1068 271 0
1071 251 1068 0
1071 1068 1072 0
270 1071 1072 0
1074 1072 271 0
1073 270 1072 0
1073 1072 1074 0
70 1073 1074 0
1076 984 63 0
1075 248 984 0
1075 984 1076 0
273 1075 1076 0
1078 981 248 0
1077 2109 981 0
1077 981 1078 0
272 1077 1078 0
1079 1075 273 0
1078 248 1075 0
1078 1075 1079 0
272 1078 1079 0
1081 1079 273 0
1080 272 1079 0
1080 1079 1081 0
69 1080 1081 0
1083 1073 70 0
1082 270 1073 0
1082 1073 1083 0
274 1082 1083 0
1084 1070 270 0
1076 63 1070 0
1076 1070 1084 0
273 1076 1084 0
1085 1082 274 0
1084 270 1082 0
1084 1082 1085 0
273 1084 1085 0
1086 1085 274 0
1081 273 1085 0
1081 1085 1086 0
69 1081 1086 0
1088 1083 70 0
1087 274 1083 0
1087 1083 1088 0
276 1087 1088 0
1090 1086 274 0
1089 69 1086 0
1089 1086 1090 0
275 1089 1090 0
1091 1087 276 0
1090 274 1087 0
1090 1087 1091 0
275 1090 1091 0
1093 1091 276 0
1092 275 1091 0
1092 1091 1093 0
18 1092 1093 0
1095 1066 19 0
1094 268 1066 0
1094 1066 1095 0
278 1094 1095 0
1097 1063 268 0
1096 67 1063 0
1096 1063 1097 0
277 1096 1097 0
1098 1094 278 0
1097 268 1094 0
1097 1094 1098 0
277 1097 1098 0
1100 1098 278 0
1099 277 1098 0
1099 1098 1100 0
71 1099 1100 0
1102 1054 67 0
1101 265 1054 0
1101 1054 1102 0
279 1101 1102 0
1103 1051 265 0
1069 17 1051 0
1069 1051 1103 0
271 1069 1103 0
1104 1101 279 0
1103 265 1101 0
1103 1101 1104 0
271 1103 1104 0
1105 1104 279 0
1074 271 1104 0
1074 1104 1105 0
70 1074 1105 0
1107 1099 71 0
1106 277 1099 0
1106 1099 1107 0
280 1106 1107 0
1108 1096 277 0
1102 67 1096 0
1102 1096 1108 0
279 1102 1108 0
1109 1106 280 0
1108 277 1106 0
1108 1106 1109 0
279 1108 1109 0
1110 1109 280 0
1105 279 1109 0
1105 1109 1110 0
70 1105 1110 0
1112 1107 71 0
1111 280 1107 0
1111 1107 1112 0
281 1111 1112 0
1113 1110 280 0
1088 70 1110 0
1088 1110 1113 0
276 1088 1113 0
1114 1111 281 0
1113 280 1111 0
1113 1111 1114 0
276 1113 1114 0
1115 1114 281 0
1093 276 1114 0
1093 1114 1115 0
18 1093 1115 0
1117 1095 19 0
1116 278 1095 0
1116 1095 1117 0
283 1116 1117 0
1119 1100 278 0
1118 71 1100 0
1118 1100 1119 0
282 1118 1119 0
1120 1116 283 0
1119 278 1116 0
1119 1116 1120 0
282 1119 1120 0
1122 1120 283 0
1121 282 1120 0
1121 1120 1122 0
73 1121 1122 0
1124 1112 71 0
1123 281 1112 0
1123 1112 1124 0
285 1123 1124 0
1126 1115 281 0
1125 18 1115 0
1125 1115 1126 0
284 1125 1126 0
1127 1123 285 0
1126 281 1123 0
1126 1123 1127 0
284 1126 1127 0
1129 1127 285 0
1128 284 1127 0
1128 1127 1129 0
72 1128 1129 0
1131 1121 73 0
1130 282 1121 0
1130 1121 1131 0
286 1130 1131 0
1132 1118 282 0
1124 71 1118 0
1124 1118 1132 0
285 1124 1132 0
1133 1130 286 0
1132 282 1130 0
1132 1130 1133 0
285 1132 1133 0
1134 1133 286 0
1129 285 1133 0
1129 1133 1134 0
72 1129 1134 0
1136 1131 73 0
1135 286 1131 0
1135 1131 1136 0
288 1135 1136 0
1138 1134 286 0
1137 72 1134 0
1137 1134 1138 0
287 1137 1138 0
1139 1135 288 0
1138 286 1135 0
1138 1135 1139 0
287 1138 1139 0
1141 1139 288 0
1140 287 1139 0
1140 1139 1141 0
5 1140 1141 0
1143 1140 5 0
1142 287 1140 0
1142 1140 1143 0
290 1142 1143 0
1145 1137 287 0
1144 72 1137 0
1144 1137 1145 0
289 1144 1145 0
1146 1142 290 0
1145 287 1142 0
1145 1142 1146 0
289 1145 1146 0
1148 1146 290 0
1147 289 1146 0
1147 1146 1148 0
75 1147 1148 0
1150 1128 72 0
1149 284 1128 0
1149 1128 1150 0
292 1149 1150 0
1152 1125 284 0
1151 18 1125 0
1151 1125 1152 0
291 1151 1152 0
1153 1149 292 0
1152 284 1149 0
1152 1149 1153 0
291 1152 1153 0
1155 1153 292 0
1154 291 1153 0
1154 1153 1155 0
74 1154 1155 0
1157 1147 75 0
1156 289 1147 0
1156 1147 1157 0
293 1156 1157 0
1158 1144 289 0
1150 72 1144 0
1150 1144 1158 0
292 1150 1158 0
1159 1156 293 0
1158 289 1156 0
1158 1156 1159 0
292 1158 1159 0
1160 1159 293 0
1155 292 1159 0
1155 1159 1160 0
74 1155 1160 0
1162 1157 75 0
1161 293 1157 0
1161 1157 1162 0
295 1161 1162 0
1164 1160 293 0
1163 74 1160 0
1163 1160 1164 0
294 1163 1164 0
1165 1161 295 0
1164 293 1161 0
1164 1161 1165 0
294 1164 1165 0
1167 1165 295 0
1166 294 1165 0
1166 1165 1167 0
20 1166 1167 0
1169 1092 18 0
1168 275 1092 0
1168 1092 1169 0
297 1168 1169 0
1171 1089 275 0
1170 69 1089 0
1170 1089 1171 0
296 1170 1171 0
1172 1168 297 0
1171 275 1168 0
1171 1168 1172 0
296 1171 1172 0
1174 1172 297 0
1173 296 1172 0
1173 1172 1174 0
76 1173 1174 0
1176 1080 69 0
1175 272 1080 0
1175 1080 1176 0
298 1175 1176 0
1177 1077 272 0
2110 2109 1077 0
2110 1077 1177 0
2111 2110 1177 0
1178 1175 298 0
1177 272 1175 0
1177 1175 1178 0
2111 1177 1178 0
1179 1178 298 0
2112 2111 1178 0
2112 1178 1179 0
2113 2112 1179 0
1181 1173 76 0
1180 296 1173 0
1180 1173 1181 0
299 1180 1181 0
1182 1170 296 0
1176 69 1170 0
1176 1170 1182 0
298 1176 1182 0
1183 1180 299 0
1182 296 1180 0
1182 1180 1183 0
298 1182 1183 0
2114 1183 299 0
1179 298 1183 0
1179 1183 2114 0
2113 1179 2114 0
1185 1181 76 0
1184 299 1181 0
1184 1181 1185 0
300 1184 1185 0
2115 2114 299 0
2116 1184 300 0
2115 299 1184 0
2115 1184 2116 0
2117 2116 300 0
1187 1166 20 0
1186 294 1166 0
1186 1166 1187 0
302 1186 1187 0
1189 1163 294 0
1188 74 1163 0
1188 1163 1189 0
301 1188 1189 0
1190 1186 302 0
1189 294 1186 0
1189 1186 1190 0
301 1189 1190 0
1192 1190 302 0
1191 301 1190 0
1191 1190 1192 0
77 1191 1192 0
1194 1154 74 0
1193 291 1154 0
1193 1154 1194 0
303 1193 1194 0
1195 1151 291 0
1169 18 1151 0
1169 1151 1195 0
297 1169 1195 0
1196 1193 303 0
1195 291 1193 0
1195 1193 1196 0
297 1195 1196 0
1197 1196 303 0
1174 297 1196 0
1174 1196 1197 0
76 1174 1197 0
1199 1191 77 0
1198 301 1191 0
1198 1191 1199 0
304 1198 1199 0
1200 1188 301 0
1194 74 1188 0
1194 1188 1200 0
303 1194 1200 0
1201 1198 304 0
1200 301 1198 0
1200 1198 1201 0
303 1200 1201 0
1202 1201 304 0
1197 303 1201 0
1197 1201 1202 0
76 1197 1202 0
1204 1199 77 0
1203 304 1199 0
1203 1199 1204 0
305 1203 1204 0
1205 1202 304 0
1185 76 1202 0
1185 1202 1205 0
300 1185 1205 0
1206 1203 305 0
1205 304 1203 0
1205 1203 1206 0
300 1205 1206 0
2118 1206 305 0
2117 300 1206 0
2117 1206 2118 0
1208 1187 20 0
1207 302 1187 0
1207 1187 1208 0
307 1207 1208 0
1210 1192 302 0
1209 77 1192 0
1209 1192 1210 0
306 1209 1210 0
1211 1207 307 0
1210 302 1207 0
1210 1207 1211 0
306 1210 1211 0
1213 1211 307 0
1212 306 1211 0
1212 1211 1213 0
78 1212 1213 0
1214 1204 77 0
2119 305 1204 0
2119 1204 1214 0
2120 2119 1214 0
2121 2118 305 0
2121 305 2119 0
2122 1212 78 0
1215 306 1212 0
1215 1212 2122 0
2123 1215 2122 0
1216 1209 306 0
1214 77 1209 0
1214 1209 1216 0
2120 1214 1216 0
2124 1215 2123 0
1216 306 1215 0
1216 1215 2124 0
2120 1216 2124 0
2125 2122 78 0
1218 1143 5 0
1217 290 1143 0
1217 1143 1218 0
309 1217 1218 0
1220 1148 290 0
1219 75 1148 0
1219 1148 1220 0
308 1219 1220 0
1221 1217 309 0
1220 290 1217 0
1220 1217 1221 0
308 1220 1221 0
1223 1221 309 0
1222 308 1221 0
1222 1221 1223 0
80 1222 1223 0
1225 1162 75 0
1224 295 1162 0
1224 1162 1225 0
311 1224 1225 0
1227 1167 295 0
1226 20 1167 0
1226 1167 1227 0
310 1226 1227 0
1228 1224 311 0
1227 295 1224 0
1227 1224 1228 0
310 1227 1228 0
1230 1228 311 0
1229 310 1228 0
1229 1228 1230 0
79 1229 1230 0
1232 1222 80 0
1231 308 1222 0
1231 1222 1232 0
312 1231 1232 0
1233 1219 308 0
1225 75 1219 0
1225 1219 1233 0
311 1225 1233 0
1234 1231 312 0
1233 308 1231 0
1233 1231 1234 0
311 1233 1234 0
1235 1234 312 0
1230 311 1234 0
1230 1234 1235 0
79 1230 1235 0
1237 1232 80 0
1236 312 1232 0
1236 1232 1237 0
314 1236 1237 0
1239 1235 312 0
1238 79 1235 0
1238 1235 1239 0
313 1238 1239 0
1240 1236 314 0
1239 312 1236 0
1239 1236 1240 0
313 1239 1240 0
1242 1240 314 0
1241 313 1240 0
1241 1240 1242 0
22 1241 1242 0
1244 1208 20 0
1243 307 1208 0
1243 1208 1244 0
316 1243 1244 0
1246 1213 307 0
1245 78 1213 0
1245 1213 1246 0
315 1245 1246 0
1247 1243 316 0
1246 307 1243 0
1246 1243 1247 0
315 1246 1247 0
1249 1247 316 0
1248 315 1247 0
1248 1247 1249 0
81 1248 1249 0
1250 2125 78 0
2126 2125 1250 0
317 2126 1250 0
2127 2126 317 0
2128 2127 317 0
1252 1248 81 0
1251 315 1248 0
1251 1248 1252 0
318 1251 1252 0
1253 1245 315 0
1250 78 1245 0
1250 1245 1253 0
317 1250 1253 0
1254 1251 318 0
1253 315 1251 0
1253 1251 1254 0
317 1253 1254 0
1255 1254 318 0
2128 317 1254 0
2128 1254 1255 0
2129 2128 1255 0
1257 1252 81 0
1256 318 1252 0
1256 1252 1257 0
320 1256 1257 0
1258 1255 318 0
2130 2129 1255 0
2130 1255 1258 0
319 2130 1258 0
1259 1256 320 0
1258 318 1256 0
1258 1256 1259 0
319 1258 1259 0
1261 1259 320 0
1260 319 1259 0
1260 1259 1261 0
21 1260 1261 0
1263 1241 22 0
1262 313 1241 0
1262 1241 1263 0
322 1262 1263 0
1265 1238 313 0
1264 79 1238 0
1264 1238 1265 0
321 1264 1265 0
1266 1262 322 0
1265 313 1262 0
1265 1262 1266 0
321 1265 1266 0
1268 1266 322 0
1267 321 1266 0
1267 1266 1268 0
82 1267 1268 0
1270 1229 79 0
1269 310 1229 0
1269 1229 1270 0
323 1269 1270 0
1271 1226 310 0
1244 20 1226 0
1244 1226 1271 0
316 1244 1271 0
1272 1269 323 0
1271 310 1269 0
1271 1269 1272 0
316 1271 1272 0
1273 1272 323 0
1249 316 1272 0
1249 1272 1273 0
81 1249 1273 0
1275 1267 82 0
1274 321 1267 0
1274 1267 1275 0
324 1274 1275 0
1276 1264 321 0
1270 79 1264 0
1270 1264 1276 0
323 1270 1276 0
1277 1274 324 0
1276 321 1274 0
1276 1274 1277 0
323 1276 1277 0
1278 1277 324 0
1273 323 1277 0
1273 1277 1278 0
81 1273 1278 0
1280 1275 82 0
1279 324 1275 0
1279 1275 1280 0
325 1279 1280 0
1281 1278 324 0
1257 81 1278 0
1257 1278 1281 0
320 1257 1281 0
1282 1279 325 0
1281 324 1279 0
1281 1279 1282 0
320 1281 1282 0
1283 1282 325 0
1261 320 1282 0
1261 1282 1283 0
21 1261 1283 0
1285 1263 22 0
1284 322 1263 0
1284 1263 1285 0
327 1284 1285 0
1287 1268 322 0
1286 82 1268 0
1286 1268 1287 0
326 1286 1287 0
1288 1284 327 0
1287 322 1284 0
1287 1284 1288 0
326 1287 1288 0
1290 1288 327 0
1289 326 1288 0
1289 1288 1290 0
84 1289 1290 0
1292 1280 82 0
1291 325 1280 0
1291 1280 1292 0
329 1291 1292 0
1294 1283 325 0
1293 21 1283 0
1293 1283 1294 0
328 1293 1294 0
1295 1291 329 0
1294 325 1291 0
1294 1291 1295 0
328 1294 1295 0
1297 1295 329 0
1296 328 1295 0
1296 1295 1297 0
83 1296 1297 0
1299 1289 84 0
1298 326 1289 0
1298 1289 1299 0
330 1298 1299 0
1300 1286 326 0
1292 82 1286 0
1292 1286 1300 0
329 1292 1300 0
1301 1298 330 0
1300 326 1298 0
1300 1298 1301 0
329 1300 1301 0
1302 1301 330 0
1297 329 1301 0
1297 1301 1302 0
83 1297 1302 0
1304 1299 84 0
1303 330 1299 0
1303 1299 1304 0
332 1303 1304 0
1306 1302 330 0
1305 83 1302 0
1305 1302 1306 0
331 1305 1306 0
1307 1303 332 0
1306 330 1303 0
1306 1303 1307 0
331 1306 1307 0
1309 1307 332 0
1308 331 1307 0
1308 1307 1309 0
1 1308 1309 0
1311 1308 1 0
1310 331 1308 0
1310 1308 1311 0
334 1310 1311 0
1313 1305 331 0
1312 83 1305 0
1312 1305 1313 0
333 1312 1313 0
1314 1310 334 0
1313 331 1310 0
1313 1310 1314 0
333 1313 1314 0
1316 1314 334 0
1315 333 1314 0
1315 1314 1316 0
85 1315 1316 0
1318 1296 83 0
1317 328 1296 0
1317 1296 1318 0
336 1317 1318 0
1320 1293 328 0
1319 21 1293 0
1319 1293 1320 0
335 1319 1320 0
1321 1317 336 0
1320 328 1317 0
1320 1317 1321 0
335 1320 1321 0
1323 1321 336 0
1322 335 1321 0
1322 1321 1323 0
2131 1322 1323 0
1325 1315 85 0
1324 333 1315 0
1324 1315 1325 0
337 1324 1325 0
1326 1312 333 0
1318 83 1312 0
1318 1312 1326 0
336 1318 1326 0
1327 1324 337 0
1326 333 1324 0
1326 1324 1327 0
336 1326 1327 0
1328 1327 337 0
1323 336 1327 0
1323 1327 1328 0
2131 1323 1328 0
1330 1325 85 0
1329 337 1325 0
1329 1325 1330 0
338 1329 1330 0
2132 1328 337 0
2133 2131 1328 0
2133 1328 2132 0
2134 1329 338 0
2132 337 1329 0
2132 1329 2134 0
2135 2134 338 0
1332 1260 21 0
1331 319 1260 0
1331 1260 1332 0
2136 1331 1332 0
2137 2130 319 0
2138 1331 2136 0
2137 319 1331 0
2137 1331 2138 0
2139 1322 2131 0
1333 335 1322 0
1333 1322 2139 0
2140 1333 2139 0
1334 1319 335 0
1332 21 1319 0
1332 1319 1334 0
2136 1332 1334 0
2141 1333 2140 0
1334 335 1333 0
1334 1333 2141 0
2136 1334 2141 0
1336 1311 1 0
1335 334 1311 0
1335 1311 1336 0
340 1335 1336 0
1338 1316 334 0
1337 85 1316 0
1337 1316 1338 0
339 1337 1338 0
1339 1335 340 0
1338 334 1335 0
1338 1335 1339 0
339 1338 1339 0
1341 1339 340 0
1340 339 1339 0
1340 1339 1341 0
87 1340 1341 0
1343 1330 85 0
1342 338 1330 0
1342 1330 1343 0
341 1342 1343 0
2142 2135 338 0
1344 1342 341 0
2142 338 1342 0
2142 1342 1344 0
2143 2142 1344 0
1345 1344 341 0
2144 2143 1344 0
2144 1344 1345 0
86 2144 1345 0
1347 1340 87 0
1346 339 1340 0
1346 1340 1347 0
342 1346 1347 0
1348 1337 339 0
1343 85 1337 0
1343 1337 1348 0
341 1343 1348 0
1349 1346 342 0
1348 339 1346 0
1348 1346 1349 0
341 1348 1349 0
1350 1349 342 0
1345 341 1349 0
1345 1349 1350 0
86 1345 1350 0
1352 1347 87 0
1351 342 1347 0
1351 1347 1352 0
344 1351 1352 0
1354 1350 342 0
1353 86 1350 0
1353 1350 1354 0
343 1353 1354 0
1355 1351 344 0
1354 342 1351 0
1354 1351 1355 0
343 1354 1355 0
1357 1355 344 0
1356 343 1355 0
1356 1355 1357 0
23 1356 1357 0
1359 1356 23 0
1358 343 1356 0
1358 1356 1359 0
345 1358 1359 0
1361 1353 343 0
1360 86 1353 0
1360 1353 1361 0
2145 1360 1361 0
1362 1358 345 0
1361 343 1358 0
1361 1358 1362 0
2145 1361 1362 0
2146 1362 345 0
2147 2145 1362 0
2147 1362 2146 0
2148 2144 86 0
2149 1360 2145 0
2148 86 1360 0
2148 1360 2149 0
1364 1359 23 0
1363 345 1359 0
1363 1359 1364 0
347 1363 1364 0
1365 2146 345 0
2150 2146 1365 0
346 2150 1365 0
1366 1363 347 0
1365 345 1363 0
1365 1363 1366 0
346 1365 1366 0
1368 1366 347 0
1367 346 1366 0
1367 1366 1368 0
88 1367 1368 0
1369 1367 88 0
2151 346 1367 0
2151 1367 1369 0
2152 2151 1369 0
2153 2150 346 0
2153 346 2151 0
1370 1369 88 0
2154 2152 1369 0
2154 1369 1370 0
348 2154 1370 0
2155 2154 348 0
1371 2155 348 0
2156 2155 1371 0
6 2156 1371 0
2157 2156 6 0
2158 2157 6 0
862 1043 0 0
1372 264 1043 0
1372 1043 862 0
218 1372 862 0
1374 1048 264 0
1373 68 1048 0
1373 1048 1374 0
349 1373 1374 0
1375 1372 218 0
1374 264 1372 0
1374 1372 1375 0
349 1374 1375 0
865 1375 218 0
1376 349 1375 0
1376 1375 865 0
56 1376 865 0
1378 1062 68 0
1377 269 1062 0
1377 1062 1378 0
351 1377 1378 0
1380 1067 269 0
1379 19 1067 0
1379 1067 1380 0
350 1379 1380 0
1381 1377 351 0
1380 269 1377 0
1380 1377 1381 0
350 1380 1381 0
1383 1381 351 0
1382 350 1381 0
1382 1381 1383 0
89 1382 1383 0
1385 1376 56 0
1384 349 1376 0
1384 1376 1385 0
352 1384 1385 0
1386 1373 349 0
1378 68 1373 0
1378 1373 1386 0
351 1378 1386 0
1387 1384 352 0
1386 349 1384 0
1386 1384 1387 0
351 1386 1387 0
1388 1387 352 0
1383 351 1387 0
1383 1387 1388 0
89 1383 1388 0
871 1385 56 0
1389 352 1385 0
1389 1385 871 0
221 1389 871 0
1391 1388 352 0
1390 89 1388 0
1390 1388 1391 0
353 1390 1391 0
1392 1389 221 0
1391 352 1389 0
1391 1389 1392 0
353 1391 1392 0
874 1392 221 0
1393 353 1392 0
1393 1392 874 0
15 1393 874 0
1395 1117 19 0
1394 283 1117 0
1394 1117 1395 0
355 1394 1395 0
1397 1122 283 0
1396 73 1122 0
1396 1122 1397 0
354 1396 1397 0
1398 1394 355 0
1397 283 1394 0
1397 1394 1398 0
354 1397 1398 0
1400 1398 355 0
1399 354 1398 0
1399 1398 1400 0
91 1399 1400 0
1402 1136 73 0
1401 288 1136 0
1401 1136 1402 0
357 1401 1402 0
1404 1141 288 0
1403 5 1141 0
1403 1141 1404 0
356 1403 1404 0
1405 1401 357 0
1404 288 1401 0
1404 1401 1405 0
356 1404 1405 0
1407 1405 357 0
1406 356 1405 0
1406 1405 1407 0
90 1406 1407 0
1409 1399 91 0
1408 354 1399 0
1408 1399 1409 0
358 1408 1409 0
1410 1396 354 0
1402 73 1396 0
1402 1396 1410 0
357 1402 1410 0
1411 1408 358 0
1410 354 1408 0
1410 1408 1411 0
357 1410 1411 0
1412 1411 358 0
1407 357 1411 0
1407 1411 1412 0
90 1407 1412 0
1414 1409 91 0
1413 358 1409 0
1413 1409 1414 0
360 1413 1414 0
1416 1412 358 0
1415 90 1412 0
1415 1412 1416 0
359 1415 1416 0
1417 1413 360 0
1416 358 1413 0
1416 1413 1417 0
359 1416 1417 0
1419 1417 360 0
1418 359 1417 0
1418 1417 1419 0
24 1418 1419 0
1421 1393 15 0
1420 353 1393 0
1420 1393 1421 0
362 1420 1421 0
1423 1390 353 0
1422 89 1390 0
1422 1390 1423 0
361 1422 1423 0
1424 1420 362 0
1423 353 1420 0
1423 1420 1424 0
361 1423 1424 0
1426 1424 362 0
1425 361 1424 0
1425 1424 1426 0
92 1425 1426 0
1428 1382 89 0
1427 350 1382 0
1427 1382 1428 0
363 1427 1428 0
1429 1379 350 0
1395 19 1379 0
1395 1379 1429 0
355 1395 1429 0
1430 1427 363 0
1429 350 1427 0
1429 1427 1430 0
355 1429 1430 0
1431 1430 363 0
1400 355 1430 0
1400 1430 1431 0
91 1400 1431 0
1433 1425 92 0
1432 361 1425 0
1432 1425 1433 0
364 1432 1433 0
1434 1422 361 0
1428 89 1422 0
1428 1422 1434 0
363 1428 1434 0
1435 1432 364 0
1434 361 1432 0
1434 1432 1435 0
363 1434 1435 0
1436 1435 364 0
1431 363 1435 0
1431 1435 1436 0
91 1431 1436 0
1438 1433 92 0
1437 364 1433 0
1437 1433 1438 0
365 1437 1438 0
1439 1436 364 0
1414 91 1436 0
1414 1436 1439 0
360 1414 1439 0
1440 1437 365 0
1439 364 1437 0
1439 1437 1440 0
360 1439 1440 0
1441 1440 365 0
1419 360 1440 0
1419 1440 1441 0
24 1419 1441 0
890 1421 15 0
1442 362 1421 0
1442 1421 890 0
226 1442 890 0
1444 1426 362 0
1443 92 1426 0
1443 1426 1444 0
366 1443 1444 0
1445 1442 226 0
1444 362 1442 0
1444 1442 1445 0
366 1444 1445 0
2064 1445 226 0
2159 366 1445 0
2159 1445 2064 0
1447 1438 92 0
1446 365 1438 0
1446 1438 1447 0
368 1446 1447 0
1449 1441 365 0
1448 24 1441 0
1448 1441 1449 0
367 1448 1449 0
1450 1446 368 0
1449 365 1446 0
1449 1446 1450 0
367 1449 1450 0
1452 1450 368 0
1451 367 1450 0
1451 1450 1452 0
2160 1451 1452 0
2161 366 2159 0
1453 1443 366 0
1447 92 1443 0
1447 1443 1453 0
368 1447 1453 0
1453 366 2161 0
1453 2161 2162 0
368 1453 2162 0
1452 368 2162 0
1452 2162 2163 0
2160 1452 2163 0
1455 1218 5 0
1454 309 1218 0
1454 1218 1455 0
370 1454 1455 0
1457 1223 309 0
1456 80 1223 0
1456 1223 1457 0
369 1456 1457 0
1458 1454 370 0
1457 309 1454 0
1457 1454 1458 0
369 1457 1458 0
1460 1458 370 0
1459 369 1458 0
1459 1458 1460 0
94 1459 1460 0
1462 1237 80 0
1461 314 1237 0
1461 1237 1462 0
372 1461 1462 0
1464 1242 314 0
1463 22 1242 0
1463 1242 1464 0
371 1463 1464 0
1465 1461 372 0
1464 314 1461 0
1464 1461 1465 0
371 1464 1465 0
1467 1465 372 0
1466 371 1465 0
1466 1465 1467 0
93 1466 1467 0
1469 1459 94 0
1468 369 1459 0
1468 1459 1469 0
373 1468 1469 0
1470 1456 369 0
1462 80 1456 0
1462 1456 1470 0
372 1462 1470 0
1471 1468 373 0
1470 369 1468 0
1470 1468 1471 0
372 1470 1471 0
1472 1471 373 0
1467 372 1471 0
1467 1471 1472 0
93 1467 1472 0
1474 1469 94 0
1473 373 1469 0
1473 1469 1474 0
375 1473 1474 0
1476 1472 373 0
1475 93 1472 0
1475 1472 1476 0
374 1475 1476 0
1477 1473 375 0
1476 373 1473 0
1476 1473 1477 0
374 1476 1477 0
1479 1477 375 0
1478 374 1477 0
1478 1477 1479 0
26 1478 1479 0
1481 1285 22 0
1480 327 1285 0
1480 1285 1481 0
377 1480 1481 0
1483 1290 327 0
1482 84 1290 0
1482 1290 1483 0
376 1482 1483 0
1484 1480 377 0
1483 327 1480 0
1483 1480 1484 0
376 1483 1484 0
1486 1484 377 0
1485 376 1484 0
1485 1484 1486 0
96 1485 1486 0
1488 1304 84 0
1487 332 1304 0
1487 1304 1488 0
379 1487 1488 0
1490 1309 332 0
1489 1 1309 0
1489 1309 1490 0
378 1489 1490 0
1491 1487 379 0
1490 332 1487 0
1490 1487 1491 0
378 1490 1491 0
1493 1491 379 0
1492 378 1491 0
1492 1491 1493 0
95 1492 1493 0
1495 1485 96 0
1494 376 1485 0
1494 1485 1495 0
380 1494 1495 0
1496 1482 376 0
1488 84 1482 0
1488 1482 1496 0
379 1488 1496 0
1497 1494 380 0
1496 376 1494 0
1496 1494 1497 0
379 1496 1497 0
1498 1497 380 0
1493 379 1497 0
1493 1497 1498 0
95 1493 1498 0
1500 1495 96 0
1499 380 1495 0
1499 1495 1500 0
382 1499 1500 0
1502 1498 380 0
1501 95 1498 0
1501 1498 1502 0
381 1501 1502 0
1503 1499 382 0
1502 380 1499 0
1502 1499 1503 0
381 1502 1503 0
1505 1503 382 0
1504 381 1503 0
1504 1503 1505 0
25 1504 1505 0
1507 1478 26 0
1506 374 1478 0
1506 1478 1507 0
384 1506 1507 0
1509 1475 374 0
1508 93 1475 0
1508 1475 1509 0
383 1508 1509 0
1510 1506 384 0
1509 374 1506 0
1509 1506 1510 0
383 1509 1510 0
1512 1510 384 0
1511 383 1510 0
1511 1510 1512 0
97 1511 1512 0
1514 1466 93 0
1513 371 1466 0
1513 1466 1514 0
385 1513 1514 0
1515 1463 371 0
1481 22 1463 0
1481 1463 1515 0
377 1481 1515 0
1516 1513 385 0
1515 371 1513 0
1515 1513 1516 0
377 1515 1516 0
1517 1516 385 0
1486 377 1516 0
1486 1516 1517 0
96 1486 1517 0
1519 1511 97 0
1518 383 1511 0
1518 1511 1519 0
386 1518 1519 0
1520 1508 383 0
1514 93 1508 0
1514 1508 1520 0
385 1514 1520 0
1521 1518 386 0
1520 383 1518 0
1520 1518 1521 0
385 1520 1521 0
1522 1521 386 0
1517 385 1521 0
1517 1521 1522 0
96 1517 1522 0
1524 1519 97 0
1523 386 1519 0
1523 1519 1524 0
387 1523 1524 0
1525 1522 386 0
1500 96 1522 0
1500 1522 1525 0
382 1500 1525 0
1526 1523 387 0
1525 386 1523 0
1525 1523 1526 0
382 1525 1526 0
1527 1526 387 0
1505 382 1526 0
1505 1526 1527 0
25 1505 1527 0
1529 1507 26 0
1528 384 1507 0
1528 1507 1529 0
389 1528 1529 0
1531 1512 384 0
1530 97 1512 0
1530 1512 1531 0
388 1530 1531 0
1532 1528 389 0
1531 384 1528 0
1531 1528 1532 0
388 1531 1532 0
1534 1532 389 0
1533 388 1532 0
1533 1532 1534 0
99 1533 1534 0
1536 1524 97 0
1535 387 1524 0
1535 1524 1536 0
391 1535 1536 0
1538 1527 387 0
1537 25 1527 0
1537 1527 1538 0
390 1537 1538 0
1539 1535 391 0
1538 387 1535 0
1538 1535 1539 0
390 1538 1539 0
1541 1539 391 0
1540 390 1539 0
1540 1539 1541 0
98 1540 1541 0
1543 1533 99 0
1542 388 1533 0
1542 1533 1543 0
392 1542 1543 0
1544 1530 388 0
1536 97 1530 0
1536 1530 1544 0
391 1536 1544 0
1545 1542 392 0
1544 388 1542 0
1544 1542 1545 0
391 1544 1545 0
1546 1545 392 0
1541 391 1545 0
1541 1545 1546 0
98 1541 1546 0
2164 1543 99 0
2165 392 1543 0
2165 1543 2164 0
2166 1546 392 0
2167 98 1546 0
2167 1546 2166 0
2166 392 2165 0
2168 1451 2160 0
1547 367 1451 0
1547 1451 2168 0
2169 1547 2168 0
1549 1448 367 0
1548 24 1448 0
1548 1448 1549 0
393 1548 1549 0
1550 1547 2169 0
1549 367 1547 0
1549 1547 1550 0
393 1549 1550 0
2170 1550 2169 0
1551 393 1550 0
1551 1550 2170 0
100 1551 2170 0
100 2170 2171 0
2172 100 2171 0
1553 1418 24 0
1552 359 1418 0
1552 1418 1553 0
395 1552 1553 0
1555 1415 359 0
1554 90 1415 0
1554 1415 1555 0
394 1554 1555 0
1556 1552 395 0
1555 359 1552 0
1555 1552 1556 0
394 1555 1556 0
1558 1556 395 0
1557 394 1556 0
1557 1556 1558 0
101 1557 1558 0
1560 1406 90 0
1559 356 1406 0
1559 1406 1560 0
396 1559 1560 0
1561 1403 356 0
1455 5 1403 0
1455 1403 1561 0
370 1455 1561 0
1562 1559 396 0
1561 356 1559 0
1561 1559 1562 0
370 1561 1562 0
1563 1562 396 0
1460 370 1562 0
1460 1562 1563 0
94 1460 1563 0
1565 1557 101 0
1564 394 1557 0
1564 1557 1565 0
397 1564 1565 0
1566 1554 394 0
1560 90 1554 0
1560 1554 1566 0
396 1560 1566 0
1567 1564 397 0
1566 394 1564 0
1566 1564 1567 0
396 1566 1567 0
1568 1567 397 0
1563 396 1567 0
1563 1567 1568 0
94 1563 1568 0
1570 1565 101 0
1569 397 1565 0
1569 1565 1570 0
398 1569 1570 0
1571 1568 397 0
1474 94 1568 0
1474 1568 1571 0
375 1474 1571 0
1572 1569 398 0
1571 397 1569 0
1571 1569 1572 0
375 1571 1572 0
1573 1572 398 0
1479 375 1572 0
1479 1572 1573 0
26 1479 1573 0
2173 100 2172 0
399 2173 2174 0
399 2174 2175 0
1574 399 2175 0
1574 2175 2176 0
102 1574 2176 0
1576 1551 100 0
1575 393 1551 0
1575 1551 1576 0
400 1575 1576 0
1577 1548 393 0
1553 24 1548 0
1553 1548 1577 0
395 1553 1577 0
1578 1575 400 0
1577 393 1575 0
1577 1575 1578 0
395 1577 1578 0
1579 1578 400 0
1558 395 1578 0
1558 1578 1579 0
101 1558 1579 0
1581 1574 102 0
1580 399 1574 0
1580 1574 1581 0
401 1580 1581 0
1582 2173 399 0
1576 100 2173 0
1576 2173 1582 0
400 1576 1582 0
1583 1580 401 0
1582 399 1580 0
1582 1580 1583 0
400 1582 1583 0
1584 1583 401 0
1579 400 1583 0
1579 1583 1584 0
101 1579 1584 0
1586 1581 102 0
1585 401 1581 0
1585 1581 1586 0
402 1585 1586 0
1587 1584 401 0
1570 101 1584 0
1570 1584 1587 0
398 1570 1587 0
1588 1585 402 0
1587 401 1585 0
1587 1585 1588 0
398 1587 1588 0
1589 1588 402 0
1573 398 1588 0
1573 1588 1589 0
26 1573 1589 0
2177 102 2176 0
1591 1586 102 0
1590 402 1586 0
1590 1586 1591 0
403 1590 1591 0
1592 1589 402 0
1529 26 1589 0
1529 1589 1592 0
389 1529 1592 0
1593 1590 403 0
1592 402 1590 0
1592 1590 1593 0
389 1592 1593 0
1594 1593 403 0
1534 389 1593 0
1534 1593 1594 0
99 1534 1594 0
1591 102 2177 0
1591 2177 2178 0
403 1591 2178 0
403 2178 2179 0
1595 2179 2180 0
1594 403 2179 0
1594 2179 1595 0
99 1594 1595 0
2181 1595 2180 0
2164 99 1595 0
2164 1595 2181 0
1597 1336 1 0
1596 340 1336 0
1596 1336 1597 0
405 1596 1597 0
1599 1341 340 0
1598 87 1341 0
1598 1341 1599 0
404 1598 1599 0
1600 1596 405 0
1599 340 1596 0
1599 1596 1600 0
404 1599 1600 0
1602 1600 405 0
1601 404 1600 0
1601 1600 1602 0
104 1601 1602 0
1604 1352 87 0
1603 344 1352 0
1603 1352 1604 0
407 1603 1604 0
1606 1357 344 0
1605 23 1357 0
1605 1357 1606 0
406 1605 1606 0
1607 1603 407 0
1606 344 1603 0
1606 1603 1607 0
406 1606 1607 0
1609 1607 407 0
1608 406 1607 0
1608 1607 1609 0
103 1608 1609 0
1611 1601 104 0
1610 404 1601 0
1610 1601 1611 0
408 1610 1611 0
1612 1598 404 0
1604 87 1598 0
1604 1598 1612 0
407 1604 1612 0
1613 1610 408 0
1612 404 1610 0
1612 1610 1613 0
407 1612 1613 0
1614 1613 408 0
1609 407 1613 0
1609 1613 1614 0
103 1609 1614 0
1616 1611 104 0
1615 408 1611 0
1615 1611 1616 0
410 1615 1616 0
1618 1614 408 0
1617 103 1614 0
1617 1614 1618 0
409 1617 1618 0
1619 1615 410 0
1618 408 1615 0
1618 1615 1619 0
409 1618 1619 0
1621 1619 410 0
1620 409 1619 0
1620 1619 1621 0
28 1620 1621 0
1623 1364 23 0
1622 347 1364 0
1622 1364 1623 0
412 1622 1623 0
1625 1368 347 0
1624 88 1368 0
1624 1368 1625 0
411 1624 1625 0
1626 1622 412 0
1625 347 1622 0
1625 1622 1626 0
411 1625 1626 0
1628 1626 412 0
1627 411 1626 0
1627 1626 1628 0
106 1627 1628 0
1630 1370 88 0
1629 348 1370 0
1629 1370 1630 0
414 1629 1630 0
1632 1371 348 0
1631 6 1371 0
1631 1371 1632 0
413 1631 1632 0
1633 1629 414 0
1632 348 1629 0
1632 1629 1633 0
413 1632 1633 0
1635 1633 414 0
1634 413 1633 0
1634 1633 1635 0
105 1634 1635 0
1637 1627 106 0
1636 411 1627 0
1636 1627 1637 0
415 1636 1637 0
1638 1624 411 0
1630 88 1624 0
1630 1624 1638 0
414 1630 1638 0
1639 1636 415 0
1638 411 1636 0
1638 1636 1639 0
414 1638 1639 0
1640 1639 415 0
1635 414 1639 0
1635 1639 1640 0
105 1635 1640 0
1642 1637 106 0
1641 415 1637 0
1641 1637 1642 0
417 1641 1642 0
1644 1640 415 0
1643 105 1640 0
1643 1640 1644 0
416 1643 1644 0
1645 1641 417 0
