#!ascii - generated by CreateLabelFiles project 
3931 7513
533 2114 2115 0
2117 2113 531 0
2116 131 2113 0
2116 2113 2117 0
532 2116 2117 0
2118 2114 533 0
2117 531 2114 0
2117 2114 2118 0
532 2117 2118 0
2120 2118 533 0
2119 532 2118 0
2119 2118 2120 0
34 2119 2120 0
2122 2094 32 0
2121 3756 2094 0
2121 2094 2122 0
535 2121 2122 0
2123 3757 3756 0
3758 3757 2123 0
534 3758 2123 0
2124 2121 535 0
2123 3756 2121 0
2123 2121 2124 0
534 2123 2124 0
2126 2124 535 0
2125 534 2124 0
2125 2124 2126 0
133 2125 2126 0
2128 2125 133 0
2127 534 2125 0
2127 2125 2128 0
536 2127 2128 0
3759 3758 534 0
2129 2127 536 0
3759 534 2127 0
3759 2127 2129 0
3760 3759 2129 0
2130 2129 536 0
3761 3760 2129 0
3761 2129 2130 0
3762 3761 2130 0
2132 2128 133 0
2131 536 2128 0
2131 2128 2132 0
538 2131 2132 0
2134 2130 536 0
2133 3762 2130 0
2133 2130 2134 0
537 2133 2134 0
2135 2131 538 0
2134 536 2131 0
2134 2131 2135 0
537 2134 2135 0
2137 2135 538 0
2136 537 2135 0
2136 2135 2137 0
33 2136 2137 0
2139 2119 34 0
2138 532 2119 0
2138 2119 2139 0
540 2138 2139 0
2141 2116 532 0
2140 131 2116 0
2140 2116 2141 0
539 2140 2141 0
2142 2138 540 0
2141 532 2138 0
2141 2138 2142 0
539 2141 2142 0
2144 2142 540 0
2143 539 2142 0
2143 2142 2144 0
134 2143 2144 0
2146 2107 131 0
2145 529 2107 0
2145 2107 2146 0
541 2145 2146 0
2147 2104 529 0
2122 32 2104 0
2122 2104 2147 0
535 2122 2147 0
2148 2145 541 0
2147 529 2145 0
2147 2145 2148 0
535 2147 2148 0
2149 2148 541 0
2126 535 2148 0
2126 2148 2149 0
133 2126 2149 0
2151 2143 134 0
2150 539 2143 0
2150 2143 2151 0
542 2150 2151 0
2152 2140 539 0
2146 131 2140 0
2146 2140 2152 0
541 2146 2152 0
2153 2150 542 0
2152 539 2150 0
2152 2150 2153 0
541 2152 2153 0
2154 2153 542 0
2149 541 2153 0
2149 2153 2154 0
133 2149 2154 0
2156 2151 134 0
2155 542 2151 0
2155 2151 2156 0
543 2155 2156 0
2157 2154 542 0
2132 133 2154 0
2132 2154 2157 0
538 2132 2157 0
2158 2155 543 0
2157 542 2155 0
2157 2155 2158 0
538 2157 2158 0
2159 2158 543 0
2137 538 2158 0
2137 2158 2159 0
33 2137 2159 0
2161 2139 34 0
2160 540 2139 0
2160 2139 2161 0
545 2160 2161 0
2163 2144 540 0
2162 134 2144 0
2162 2144 2163 0
544 2162 2163 0
2164 2160 545 0
2163 540 2160 0
2163 2160 2164 0
544 2163 2164 0
2166 2164 545 0
2165 544 2164 0
2165 2164 2166 0
136 2165 2166 0
2168 2156 134 0
2167 543 2156 0
2167 2156 2168 0
547 2167 2168 0
2170 2159 543 0
2169 33 2159 0
2169 2159 2170 0
546 2169 2170 0
2171 2167 547 0
2170 543 2167 0
2170 2167 2171 0
546 2170 2171 0
2173 2171 547 0
2172 546 2171 0
2172 2171 2173 0
135 2172 2173 0
2175 2165 136 0
2174 544 2165 0
2174 2165 2175 0
548 2174 2175 0
2176 2162 544 0
2168 134 2162 0
2168 2162 2176 0
547 2168 2176 0
2177 2174 548 0
2176 544 2174 0
2176 2174 2177 0
547 2176 2177 0
2178 2177 548 0
2173 547 2177 0
2173 2177 2178 0
135 2173 2178 0
2180 2175 136 0
2179 548 2175 0
2179 2175 2180 0
550 2179 2180 0
2182 2178 548 0
2181 135 2178 0
2181 2178 2182 0
549 2181 2182 0
2183 2179 550 0
2182 548 2179 0
2182 2179 2183 0
549 2182 2183 0
2185 2183 550 0
2184 549 2183 0
2184 2183 2185 0
2 2184 2185 0
2187 2184 2 0
2186 549 2184 0
2186 2184 2187 0
552 2186 2187 0
2189 2181 549 0
2188 135 2181 0
2188 2181 2189 0
551 2188 2189 0
2190 2186 552 0
2189 549 2186 0
2189 2186 2190 0
551 2189 2190 0
2192 2190 552 0
2191 551 2190 0
2191 2190 2192 0
138 2191 2192 0
2194 2172 135 0
2193 546 2172 0
2193 2172 2194 0
554 2193 2194 0
2196 2169 546 0
2195 33 2169 0
2195 2169 2196 0
553 2195 2196 0
2197 2193 554 0
2196 546 2193 0
2196 2193 2197 0
553 2196 2197 0
2199 2197 554 0
2198 553 2197 0
2198 2197 2199 0
137 2198 2199 0
2201 2191 138 0
2200 551 2191 0
2200 2191 2201 0
555 2200 2201 0
2202 2188 551 0
2194 135 2188 0
2194 2188 2202 0
554 2194 2202 0
2203 2200 555 0
2202 551 2200 0
2202 2200 2203 0
554 2202 2203 0
2204 2203 555 0
2199 554 2203 0
2199 2203 2204 0
137 2199 2204 0
2206 2201 138 0
2205 555 2201 0
2205 2201 2206 0
557 2205 2206 0
2208 2204 555 0
2207 137 2204 0
2207 2204 2208 0
556 2207 2208 0
2209 2205 557 0
2208 555 2205 0
2208 2205 2209 0
556 2208 2209 0
2211 2209 557 0
2210 556 2209 0
2210 2209 2211 0
35 2210 2211 0
2213 2136 33 0
2212 537 2136 0
2212 2136 2213 0
559 2212 2213 0
2215 2133 537 0
2214 3762 2133 0
2214 2133 2215 0
558 2214 2215 0
2216 2212 559 0
2215 537 2212 0
2215 2212 2216 0
558 2215 2216 0
2218 2216 559 0
2217 558 2216 0
2217 2216 2218 0
139 2217 2218 0
2220 2217 139 0
2219 558 2217 0
2219 2217 2220 0
3763 2219 2220 0
3764 2214 558 0
3765 3762 2214 0
3765 2214 3764 0
3766 2219 3763 0
3764 558 2219 0
3764 2219 3766 0
2222 2220 139 0
2221 3763 2220 0
2221 2220 2222 0
560 2221 2222 0
3767 2221 560 0
3768 3763 2221 0
3768 2221 3767 0
3769 3767 560 0
2224 2210 35 0
2223 556 2210 0
2223 2210 2224 0
562 2223 2224 0
2226 2207 556 0
2225 137 2207 0
2225 2207 2226 0
561 2225 2226 0
2227 2223 562 0
2226 556 2223 0
2226 2223 2227 0
561 2226 2227 0
2229 2227 562 0
2228 561 2227 0
2228 2227 2229 0
140 2228 2229 0
2231 2198 137 0
2230 553 2198 0
2230 2198 2231 0
563 2230 2231 0
2232 2195 553 0
2213 33 2195 0
2213 2195 2232 0
559 2213 2232 0
2233 2230 563 0
2232 553 2230 0
2232 2230 2233 0
559 2232 2233 0
2234 2233 563 0
2218 559 2233 0
2218 2233 2234 0
139 2218 2234 0
2236 2228 140 0
2235 561 2228 0
2235 2228 2236 0
564 2235 2236 0
2237 2225 561 0
2231 137 2225 0
2231 2225 2237 0
563 2231 2237 0
2238 2235 564 0
2237 561 2235 0
2237 2235 2238 0
563 2237 2238 0
2239 2238 564 0
2234 563 2238 0
2234 2238 2239 0
139 2234 2239 0
2241 2236 140 0
2240 564 2236 0
2240 2236 2241 0
565 2240 2241 0
2242 2239 564 0
2222 139 2239 0
2222 2239 2242 0
560 2222 2242 0
2243 2240 565 0
2242 564 2240 0
2242 2240 2243 0
560 2242 2243 0
2244 2243 565 0
3769 560 2243 0
3769 2243 2244 0
3770 3769 2244 0
2246 2224 35 0
2245 562 2224 0
2245 2224 2246 0
567 2245 2246 0
2248 2229 562 0
2247 140 2229 0
2247 2229 2248 0
566 2247 2248 0
2249 2245 567 0
2248 562 2245 0
2248 2245 2249 0
566 2248 2249 0
2251 2249 567 0
2250 566 2249 0
2250 2249 2251 0
142 2250 2251 0
2253 2241 140 0
2252 565 2241 0
2252 2241 2253 0
568 2252 2253 0
2254 2244 565 0
3771 3770 2244 0
3771 2244 2254 0
3772 3771 2254 0
2255 2252 568 0
2254 565 2252 0
2254 2252 2255 0
3772 2254 2255 0
2257 2255 568 0
2256 3772 2255 0
2256 2255 2257 0
141 2256 2257 0
2259 2250 142 0
2258 566 2250 0
2258 2250 2259 0
569 2258 2259 0
2260 2247 566 0
2253 140 2247 0
2253 2247 2260 0
568 2253 2260 0
2261 2258 569 0
2260 566 2258 0
2260 2258 2261 0
568 2260 2261 0
2262 2261 569 0
2257 568 2261 0
2257 2261 2262 0
141 2257 2262 0
2264 2259 142 0
2263 569 2259 0
2263 2259 2264 0
571 2263 2264 0
2266 2262 569 0
2265 141 2262 0
2265 2262 2266 0
570 2265 2266 0
2267 2263 571 0
2266 569 2263 0
2266 2263 2267 0
570 2266 2267 0
2269 2267 571 0
2268 570 2267 0
2268 2267 2269 0
8 2268 2269 0
2271 2268 8 0
2270 570 2268 0
2270 2268 2271 0
572 2270 2271 0
2273 2265 570 0
2272 141 2265 0
2272 2265 2273 0
3773 2272 2273 0
2274 2270 572 0
2273 570 2270 0
2273 2270 2274 0
3773 2273 2274 0
2275 2274 572 0
3774 3773 2274 0
3774 2274 2275 0
3775 3774 2275 0
2276 2256 141 0
3776 3772 2256 0
3776 2256 2276 0
3777 3776 2276 0
3778 2272 3773 0
2276 141 2272 0
2276 2272 3778 0
3777 2276 3778 0
2278 2271 8 0
2277 572 2271 0
2277 2271 2278 0
573 2277 2278 0
2279 2275 572 0
3779 3775 2275 0
3779 2275 2279 0
3780 3779 2279 0
2280 2277 573 0
2279 572 2277 0
2279 2277 2280 0
3780 2279 2280 0
2282 2280 573 0
2281 3780 2280 0
2281 2280 2282 0
143 2281 2282 0
3781 2281 143 0
3782 3780 2281 0
3782 2281 3781 0
3783 3781 143 0
2284 2187 2 0
2283 552 2187 0
2283 2187 2284 0
575 2283 2284 0
2286 2192 552 0
2285 138 2192 0
2285 2192 2286 0
574 2285 2286 0
2287 2283 575 0
2286 552 2283 0
2286 2283 2287 0
574 2286 2287 0
2289 2287 575 0
2288 574 2287 0
2288 2287 2289 0
145 2288 2289 0
2291 2206 138 0
2290 557 2206 0
2290 2206 2291 0
577 2290 2291 0
2293 2211 557 0
2292 35 2211 0
2292 2211 2293 0
576 2292 2293 0
2294 2290 577 0
2293 557 2290 0
2293 2290 2294 0
576 2293 2294 0
2296 2294 577 0
2295 576 2294 0
2295 2294 2296 0
144 2295 2296 0
2298 2288 145 0
2297 574 2288 0
2297 2288 2298 0
578 2297 2298 0
2299 2285 574 0
2291 138 2285 0
2291 2285 2299 0
577 2291 2299 0
2300 2297 578 0
2299 574 2297 0
2299 2297 2300 0
577 2299 2300 0
2301 2300 578 0
2296 577 2300 0
2296 2300 2301 0
144 2296 2301 0
2303 2298 145 0
2302 578 2298 0
2302 2298 2303 0
580 2302 2303 0
2305 2301 578 0
2304 144 2301 0
2304 2301 2305 0
579 2304 2305 0
2306 2302 580 0
2305 578 2302 0
2305 2302 2306 0
579 2305 2306 0
2308 2306 580 0
2307 579 2306 0
2307 2306 2308 0
37 2307 2308 0
2310 2246 35 0
2309 567 2246 0
2309 2246 2310 0
582 2309 2310 0
2312 2251 567 0
2311 142 2251 0
2311 2251 2312 0
581 2311 2312 0
2313 2309 582 0
2312 567 2309 0
2312 2309 2313 0
581 2312 2313 0
2315 2313 582 0
2314 581 2313 0
2314 2313 2315 0
147 2314 2315 0
2317 2264 142 0
2316 571 2264 0
2316 2264 2317 0
584 2316 2317 0
2319 2269 571 0
2318 8 2269 0
2318 2269 2319 0
583 2318 2319 0
2320 2316 584 0
2319 571 2316 0
2319 2316 2320 0
583 2319 2320 0
2322 2320 584 0
2321 583 2320 0
2321 2320 2322 0
146 2321 2322 0
2324 2314 147 0
2323 581 2314 0
2323 2314 2324 0
585 2323 2324 0
2325 2311 581 0
2317 142 2311 0
2317 2311 2325 0
584 2317 2325 0
2326 2323 585 0
2325 581 2323 0
2325 2323 2326 0
584 2325 2326 0
2327 2326 585 0
2322 584 2326 0
2322 2326 2327 0
146 2322 2327 0
2329 2324 147 0
2328 585 2324 0
2328 2324 2329 0
587 2328 2329 0
2331 2327 585 0
2330 146 2327 0
2330 2327 2331 0
586 2330 2331 0
2332 2328 587 0
2331 585 2328 0
2331 2328 2332 0
586 2331 2332 0
2334 2332 587 0
2333 586 2332 0
2333 2332 2334 0
36 2333 2334 0
2336 2307 37 0
2335 579 2307 0
2335 2307 2336 0
589 2335 2336 0
2338 2304 579 0
2337 144 2304 0
2337 2304 2338 0
588 2337 2338 0
2339 2335 589 0
2338 579 2335 0
2338 2335 2339 0
588 2338 2339 0
2341 2339 589 0
2340 588 2339 0
2340 2339 2341 0
148 2340 2341 0
2343 2295 144 0
2342 576 2295 0
2342 2295 2343 0
590 2342 2343 0
2344 2292 576 0
2310 35 2292 0
2310 2292 2344 0
582 2310 2344 0
2345 2342 590 0
2344 576 2342 0
2344 2342 2345 0
582 2344 2345 0
2346 2345 590 0
2315 582 2345 0
2315 2345 2346 0
147 2315 2346 0
2348 2340 148 0
2347 588 2340 0
2347 2340 2348 0
591 2347 2348 0
2349 2337 588 0
2343 144 2337 0
2343 2337 2349 0
590 2343 2349 0
2350 2347 591 0
2349 588 2347 0
2349 2347 2350 0
590 2349 2350 0
2351 2350 591 0
2346 590 2350 0
2346 2350 2351 0
147 2346 2351 0
2353 2348 148 0
2352 591 2348 0
2352 2348 2353 0
592 2352 2353 0
2354 2351 591 0
2329 147 2351 0
2329 2351 2354 0
587 2329 2354 0
2355 2352 592 0
2354 591 2352 0
2354 2352 2355 0
587 2354 2355 0
2356 2355 592 0
2334 587 2355 0
2334 2355 2356 0
36 2334 2356 0
2358 2336 37 0
2357 589 2336 0
2357 2336 2358 0
594 2357 2358 0
2360 2341 589 0
2359 148 2341 0
2359 2341 2360 0
593 2359 2360 0
2361 2357 594 0
2360 589 2357 0
2360 2357 2361 0
593 2360 2361 0
2363 2361 594 0
2362 593 2361 0
2362 2361 2363 0
150 2362 2363 0
2365 2353 148 0
2364 592 2353 0
2364 2353 2365 0
596 2364 2365 0
2367 2356 592 0
2366 36 2356 0
2366 2356 2367 0
595 2366 2367 0
2368 2364 596 0
2367 592 2364 0
2367 2364 2368 0
595 2367 2368 0
2370 2368 596 0
2369 595 2368 0
2369 2368 2370 0
149 2369 2370 0
2372 2362 150 0
2371 593 2362 0
2371 2362 2372 0
597 2371 2372 0
2373 2359 593 0
2365 148 2359 0
2365 2359 2373 0
596 2365 2373 0
2374 2371 597 0
2373 593 2371 0
2373 2371 2374 0
596 2373 2374 0
2375 2374 597 0
2370 596 2374 0
2370 2374 2375 0
149 2370 2375 0
2377 2372 150 0
2376 597 2372 0
2376 2372 2377 0
599 2376 2377 0
2379 2375 597 0
2378 149 2375 0
2378 2375 2379 0
598 2378 2379 0
2380 2376 599 0
2379 597 2376 0
2379 2376 2380 0
598 2379 2380 0
2382 2380 599 0
2381 598 2380 0
2381 2380 2382 0
10 2381 2382 0
2384 2278 8 0
2383 573 2278 0
2383 2278 2384 0
601 2383 2384 0
2386 2282 573 0
2385 143 2282 0
2385 2282 2386 0
600 2385 2386 0
2387 2383 601 0
2386 573 2383 0
2386 2383 2387 0
600 2386 2387 0
2389 2387 601 0
2388 600 2387 0
2388 2387 2389 0
152 2388 2389 0
2390 3783 143 0
3784 3783 2390 0
602 3784 2390 0
3785 3784 602 0
2391 3785 602 0
3786 3785 2391 0
151 3786 2391 0
2393 2388 152 0
2392 600 2388 0
2392 2388 2393 0
603 2392 2393 0
2394 2385 600 0
2390 143 2385 0
2390 2385 2394 0
602 2390 2394 0
2395 2392 603 0
2394 600 2392 0
2394 2392 2395 0
602 2394 2395 0
2396 2395 603 0
2391 602 2395 0
2391 2395 2396 0
151 2391 2396 0
2398 2393 152 0
2397 603 2393 0
2397 2393 2398 0
605 2397 2398 0
2400 2396 603 0
2399 151 2396 0
2399 2396 2400 0
604 2399 2400 0
2401 2397 605 0
2400 603 2397 0
2400 2397 2401 0
604 2400 2401 0
2403 2401 605 0
2402 604 2401 0
2402 2401 2403 0
38 2402 2403 0
2405 2402 38 0
2404 604 2402 0
2404 2402 2405 0
607 2404 2405 0
2407 2399 604 0
2406 151 2399 0
2406 2399 2407 0
606 2406 2407 0
2408 2404 607 0
2407 604 2404 0
2407 2404 2408 0
606 2407 2408 0
2410 2408 607 0
2409 606 2408 0
2409 2408 2410 0
153 2409 2410 0
2411 3786 151 0
3787 3786 2411 0
3788 3787 2411 0
3789 2409 153 0
3790 606 2409 0
3790 2409 3789 0
3791 2406 606 0
2411 151 2406 0
2411 2406 3791 0
3788 2411 3791 0
3791 606 3790 0
3792 3789 153 0
2413 2405 38 0
2412 607 2405 0
2412 2405 2413 0
609 2412 2413 0
2415 2410 607 0
2414 153 2410 0
2414 2410 2415 0
608 2414 2415 0
2416 2412 609 0
2415 607 2412 0
2415 2412 2416 0
608 2415 2416 0
2418 2416 609 0
2417 608 2416 0
2417 2416 2418 0
155 2417 2418 0
2420 3792 153 0
2419 3793 3792 0
2419 3792 2420 0
610 2419 2420 0
2421 2419 610 0
3794 3793 2419 0
3794 2419 2421 0
3795 3794 2421 0
2423 2421 610 0
2422 3795 2421 0
2422 2421 2423 0
154 2422 2423 0
2425 2417 155 0
2424 608 2417 0
2424 2417 2425 0
611 2424 2425 0
2426 2414 608 0
2420 153 2414 0
2420 2414 2426 0
610 2420 2426 0
2427 2424 611 0
2426 608 2424 0
2426 2424 2427 0
610 2426 2427 0
2428 2427 611 0
2423 610 2427 0
2423 2427 2428 0
154 2423 2428 0
2430 2425 155 0
2429 611 2425 0
2429 2425 2430 0
613 2429 2430 0
2432 2428 611 0
2431 154 2428 0
2431 2428 2432 0
612 2431 2432 0
2433 2429 613 0
2432 611 2429 0
2432 2429 2433 0
612 2432 2433 0
2435 2433 613 0
2434 612 2433 0
2434 2433 2435 0
9 2434 2435 0
2437 2381 10 0
2436 598 2381 0
2436 2381 2437 0
615 2436 2437 0
2439 2378 598 0
2438 149 2378 0
2438 2378 2439 0
614 2438 2439 0
2440 2436 615 0
2439 598 2436 0
2439 2436 2440 0
614 2439 2440 0
2442 2440 615 0
2441 614 2440 0
2441 2440 2442 0
157 2441 2442 0
2444 2369 149 0
2443 595 2369 0
2443 2369 2444 0
617 2443 2444 0
2446 2366 595 0
2445 36 2366 0
2445 2366 2446 0
616 2445 2446 0
2447 2443 617 0
2446 595 2443 0
2446 2443 2447 0
616 2446 2447 0
2449 2447 617 0
2448 616 2447 0
2448 2447 2449 0
156 2448 2449 0
2451 2441 157 0
2450 614 2441 0
2450 2441 2451 0
618 2450 2451 0
2452 2438 614 0
2444 149 2438 0
2444 2438 2452 0
617 2444 2452 0
2453 2450 618 0
2452 614 2450 0
2452 2450 2453 0
617 2452 2453 0
2454 2453 618 0
2449 617 2453 0
2449 2453 2454 0
156 2449 2454 0
2456 2451 157 0
2455 618 2451 0
2455 2451 2456 0
620 2455 2456 0
2458 2454 618 0
2457 156 2454 0
2457 2454 2458 0
619 2457 2458 0
2459 2455 620 0
2458 618 2455 0
2458 2455 2459 0
619 2458 2459 0
2461 2459 620 0
2460 619 2459 0
2460 2459 2461 0
39 2460 2461 0
2463 2333 36 0
2462 586 2333 0
2462 2333 2463 0
622 2462 2463 0
2465 2330 586 0
2464 146 2330 0
2464 2330 2465 0
621 2464 2465 0
2466 2462 622 0
2465 586 2462 0
2465 2462 2466 0
621 2465 2466 0
2468 2466 622 0
2467 621 2466 0
2467 2466 2468 0
158 2467 2468 0
2470 2321 146 0
2469 583 2321 0
2469 2321 2470 0
623 2469 2470 0
2471 2318 583 0
2384 8 2318 0
2384 2318 2471 0
601 2384 2471 0
2472 2469 623 0
2471 583 2469 0
2471 2469 2472 0
601 2471 2472 0
2473 2472 623 0
2389 601 2472 0
2389 2472 2473 0
152 2389 2473 0
2475 2467 158 0
2474 621 2467 0
2474 2467 2475 0
624 2474 2475 0
2476 2464 621 0
2470 146 2464 0
2470 2464 2476 0
623 2470 2476 0
2477 2474 624 0
2476 621 2474 0
2476 2474 2477 0
623 2476 2477 0
2478 2477 624 0
2473 623 2477 0
2473 2477 2478 0
152 2473 2478 0
2480 2475 158 0
2479 624 2475 0
2479 2475 2480 0
625 2479 2480 0
2481 2478 624 0
2398 152 2478 0
2398 2478 2481 0
605 2398 2481 0
2482 2479 625 0
2481 624 2479 0
2481 2479 2482 0
605 2481 2482 0
2483 2482 625 0
2403 605 2482 0
2403 2482 2483 0
38 2403 2483 0
2485 2460 39 0
2484 619 2460 0
2484 2460 2485 0
627 2484 2485 0
2487 2457 619 0
2486 156 2457 0
2486 2457 2487 0
626 2486 2487 0
2488 2484 627 0
2487 619 2484 0
2487 2484 2488 0
626 2487 2488 0
2490 2488 627 0
2489 626 2488 0
2489 2488 2490 0
159 2489 2490 0
2492 2448 156 0
2491 616 2448 0
2491 2448 2492 0
628 2491 2492 0
2493 2445 616 0
2463 36 2445 0
2463 2445 2493 0
622 2463 2493 0
2494 2491 628 0
2493 616 2491 0
2493 2491 2494 0
622 2493 2494 0
2495 2494 628 0
2468 622 2494 0
2468 2494 2495 0
158 2468 2495 0
2497 2489 159 0
2496 626 2489 0
2496 2489 2497 0
629 2496 2497 0
2498 2486 626 0
2492 156 2486 0
2492 2486 2498 0
628 2492 2498 0
2499 2496 629 0
2498 626 2496 0
2498 2496 2499 0
628 2498 2499 0
2500 2499 629 0
2495 628 2499 0
2495 2499 2500 0
158 2495 2500 0
2502 2497 159 0
2501 629 2497 0
2501 2497 2502 0
630 2501 2502 0
2503 2500 629 0
2480 158 2500 0
2480 2500 2503 0
625 2480 2503 0
2504 2501 630 0
2503 629 2501 0
2503 2501 2504 0
625 2503 2504 0
2505 2504 630 0
2483 625 2504 0
2483 2504 2505 0
38 2483 2505 0
2507 2485 39 0
2506 627 2485 0
2506 2485 2507 0
632 2506 2507 0
2509 2490 627 0
2508 159 2490 0
2508 2490 2509 0
631 2508 2509 0
2510 2506 632 0
2509 627 2506 0
2509 2506 2510 0
631 2509 2510 0
2512 2510 632 0
2511 631 2510 0
2511 2510 2512 0
160 2511 2512 0
2514 2502 159 0
2513 630 2502 0
2513 2502 2514 0
633 2513 2514 0
2515 2505 630 0
2413 38 2505 0
2413 2505 2515 0
609 2413 2515 0
2516 2513 633 0
2515 630 2513 0
2515 2513 2516 0
609 2515 2516 0
2517 2516 633 0
2418 609 2516 0
2418 2516 2517 0
155 2418 2517 0
2519 2511 160 0
2518 631 2511 0
2518 2511 2519 0
634 2518 2519 0
2520 2508 631 0
2514 159 2508 0
2514 2508 2520 0
633 2514 2520 0
2521 2518 634 0
2520 631 2518 0
2520 2518 2521 0
633 2520 2521 0
2522 2521 634 0
2517 633 2521 0
2517 2521 2522 0
155 2517 2522 0
2524 2519 160 0
2523 634 2519 0
2523 2519 2524 0
635 2523 2524 0
2525 2522 634 0
2430 155 2522 0
2430 2522 2525 0
613 2430 2525 0
2526 2523 635 0
2525 634 2523 0
2525 2523 2526 0
613 2525 2526 0
2527 2526 635 0
2435 613 2526 0
2435 2526 2527 0
9 2435 2527 0
2529 2437 10 0
2528 615 2437 0
2528 2437 2529 0
637 2528 2529 0
2531 2442 615 0
2530 157 2442 0
2530 2442 2531 0
636 2530 2531 0
2532 2528 637 0
2531 615 2528 0
2531 2528 2532 0
636 2531 2532 0
2534 2532 637 0
2533 636 2532 0
2533 2532 2534 0
162 2533 2534 0
2536 2456 157 0
2535 620 2456 0
2535 2456 2536 0
639 2535 2536 0
2538 2461 620 0
2537 39 2461 0
2537 2461 2538 0
638 2537 2538 0
2539 2535 639 0
2538 620 2535 0
2538 2535 2539 0
638 2538 2539 0
2541 2539 639 0
2540 638 2539 0
2540 2539 2541 0
161 2540 2541 0
2543 2533 162 0
2542 636 2533 0
2542 2533 2543 0
640 2542 2543 0
2544 2530 636 0
2536 157 2530 0
2536 2530 2544 0
639 2536 2544 0
2545 2542 640 0
2544 636 2542 0
2544 2542 2545 0
639 2544 2545 0
2546 2545 640 0
2541 639 2545 0
2541 2545 2546 0
161 2541 2546 0
2548 2543 162 0
2547 640 2543 0
2547 2543 2548 0
642 2547 2548 0
2550 2546 640 0
2549 161 2546 0
2549 2546 2550 0
641 2549 2550 0
2551 2547 642 0
2550 640 2547 0
2550 2547 2551 0
641 2550 2551 0
2553 2551 642 0
2552 641 2551 0
2552 2551 2553 0
41 2552 2553 0
2555 2507 39 0
2554 632 2507 0
2554 2507 2555 0
644 2554 2555 0
2557 2512 632 0
2556 160 2512 0
2556 2512 2557 0
643 2556 2557 0
2558 2554 644 0
2557 632 2554 0
2557 2554 2558 0
643 2557 2558 0
2560 2558 644 0
2559 643 2558 0
2559 2558 2560 0
164 2559 2560 0
2562 2524 160 0
2561 635 2524 0
2561 2524 2562 0
646 2561 2562 0
2564 2527 635 0
2563 9 2527 0
2563 2527 2564 0
645 2563 2564 0
2565 2561 646 0
2564 635 2561 0
2564 2561 2565 0
645 2564 2565 0
2567 2565 646 0
2566 645 2565 0
2566 2565 2567 0
163 2566 2567 0
2569 2559 164 0
2568 643 2559 0
2568 2559 2569 0
647 2568 2569 0
2570 2556 643 0
2562 160 2556 0
2562 2556 2570 0
646 2562 2570 0
2571 2568 647 0
2570 643 2568 0
2570 2568 2571 0
646 2570 2571 0
2572 2571 647 0
2567 646 2571 0
2567 2571 2572 0
163 2567 2572 0
2574 2569 164 0
2573 647 2569 0
2573 2569 2574 0
649 2573 2574 0
2576 2572 647 0
2575 163 2572 0
2575 2572 2576 0
648 2575 2576 0
2577 2573 649 0
2576 647 2573 0
2576 2573 2577 0
648 2576 2577 0
2579 2577 649 0
2578 648 2577 0
2578 2577 2579 0
40 2578 2579 0
2581 2552 41 0
2580 641 2552 0
2580 2552 2581 0
651 2580 2581 0
2583 2549 641 0
2582 161 2549 0
2582 2549 2583 0
650 2582 2583 0
2584 2580 651 0
2583 641 2580 0
2583 2580 2584 0
650 2583 2584 0
2586 2584 651 0
2585 650 2584 0
2585 2584 2586 0
165 2585 2586 0
2588 2540 161 0
2587 638 2540 0
2587 2540 2588 0
652 2587 2588 0
2589 2537 638 0
2555 39 2537 0
2555 2537 2589 0
644 2555 2589 0
2590 2587 652 0
2589 638 2587 0
2589 2587 2590 0
644 2589 2590 0
2591 2590 652 0
2560 644 2590 0
2560 2590 2591 0
164 2560 2591 0
2593 2585 165 0
2592 650 2585 0
2592 2585 2593 0
653 2592 2593 0
2594 2582 650 0
2588 161 2582 0
2588 2582 2594 0
652 2588 2594 0
2595 2592 653 0
2594 650 2592 0
2594 2592 2595 0
652 2594 2595 0
2596 2595 653 0
2591 652 2595 0
2591 2595 2596 0
164 2591 2596 0
2598 2593 165 0
2597 653 2593 0
2597 2593 2598 0
654 2597 2598 0
2599 2596 653 0
2574 164 2596 0
2574 2596 2599 0
649 2574 2599 0
2600 2597 654 0
2599 653 2597 0
2599 2597 2600 0
649 2599 2600 0
2601 2600 654 0
2579 649 2600 0
2579 2600 2601 0
40 2579 2601 0
2603 2581 41 0
2602 651 2581 0
2602 2581 2603 0
656 2602 2603 0
2605 2586 651 0
2604 165 2586 0
2604 2586 2605 0
655 2604 2605 0
2606 2602 656 0
2605 651 2602 0
2605 2602 2606 0
655 2605 2606 0
2608 2606 656 0
2607 655 2606 0
2607 2606 2608 0
167 2607 2608 0
2610 2598 165 0
2609 654 2598 0
2609 2598 2610 0
658 2609 2610 0
2612 2601 654 0
2611 40 2601 0
2611 2601 2612 0
657 2611 2612 0
2613 2609 658 0
2612 654 2609 0
2612 2609 2613 0
657 2612 2613 0
2615 2613 658 0
2614 657 2613 0
2614 2613 2615 0
166 2614 2615 0
2617 2607 167 0
2616 655 2607 0
2616 2607 2617 0
659 2616 2617 0
2618 2604 655 0
2610 165 2604 0
2610 2604 2618 0
658 2610 2618 0
2619 2616 659 0
2618 655 2616 0
2618 2616 2619 0
658 2618 2619 0
2620 2619 659 0
2615 658 2619 0
2615 2619 2620 0
166 2615 2620 0
2622 2617 167 0
2621 659 2617 0
2621 2617 2622 0
3796 2621 2622 0
2624 2620 659 0
2623 166 2620 0
2623 2620 2624 0
660 2623 2624 0
2625 2621 3796 0
2624 659 2621 0
2624 2621 2625 0
660 2624 2625 0
3797 2625 3796 0
2626 660 2625 0
2626 2625 3797 0
3798 2626 3797 0
2628 2626 3798 0
2627 660 2626 0
2627 2626 2628 0
662 2627 2628 0
2630 2623 660 0
2629 166 2623 0
2629 2623 2630 0
661 2629 2630 0
2631 2627 662 0
2630 660 2627 0
2630 2627 2631 0
661 2630 2631 0
2633 2631 662 0
2632 661 2631 0
2632 2631 2633 0
169 2632 2633 0
2635 2614 166 0
2634 657 2614 0
2634 2614 2635 0
664 2634 2635 0
2637 2611 657 0
2636 40 2611 0
2636 2611 2637 0
663 2636 2637 0
2638 2634 664 0
2637 657 2634 0
2637 2634 2638 0
663 2637 2638 0
2640 2638 664 0
2639 663 2638 0
2639 2638 2640 0
168 2639 2640 0
2642 2632 169 0
2641 661 2632 0
2641 2632 2642 0
665 2641 2642 0
2643 2629 661 0
2635 166 2629 0
2635 2629 2643 0
664 2635 2643 0
2644 2641 665 0
2643 661 2641 0
2643 2641 2644 0
664 2643 2644 0
2645 2644 665 0
2640 664 2644 0
2640 2644 2645 0
168 2640 2645 0
2647 2642 169 0
2646 665 2642 0
2646 2642 2647 0
667 2646 2647 0
2649 2645 665 0
2648 168 2645 0
2648 2645 2649 0
666 2648 2649 0
2650 2646 667 0
2649 665 2646 0
2649 2646 2650 0
666 2649 2650 0
2652 2650 667 0
2651 666 2650 0
2651 2650 2652 0
43 2651 2652 0
2654 2578 40 0
2653 648 2578 0
2653 2578 2654 0
669 2653 2654 0
2656 2575 648 0
2655 163 2575 0
2655 2575 2656 0
668 2655 2656 0
2657 2653 669 0
2656 648 2653 0
2656 2653 2657 0
668 2656 2657 0
2659 2657 669 0
2658 668 2657 0
2658 2657 2659 0
171 2658 2659 0
2661 2566 163 0
2660 645 2566 0
2660 2566 2661 0
671 2660 2661 0
2663 2563 645 0
2662 9 2563 0
2662 2563 2663 0
670 2662 2663 0
2664 2660 671 0
2663 645 2660 0
2663 2660 2664 0
670 2663 2664 0
2666 2664 671 0
2665 670 2664 0
2665 2664 2666 0
170 2665 2666 0
2668 2658 171 0
2667 668 2658 0
2667 2658 2668 0
672 2667 2668 0
2669 2655 668 0
2661 163 2655 0
2661 2655 2669 0
671 2661 2669 0
2670 2667 672 0
2669 668 2667 0
2669 2667 2670 0
671 2669 2670 0
2671 2670 672 0
2666 671 2670 0
2666 2670 2671 0
170 2666 2671 0
2673 2668 171 0
2672 672 2668 0
2672 2668 2673 0
674 2672 2673 0
2675 2671 672 0
2674 170 2671 0
2674 2671 2675 0
673 2674 2675 0
2676 2672 674 0
2675 672 2672 0
2675 2672 2676 0
673 2675 2676 0
2678 2676 674 0
2677 673 2676 0
2677 2676 2678 0
42 2677 2678 0
2680 2651 43 0
2679 666 2651 0
2679 2651 2680 0
676 2679 2680 0
2682 2648 666 0
2681 168 2648 0
2681 2648 2682 0
675 2681 2682 0
2683 2679 676 0
2682 666 2679 0
2682 2679 2683 0
675 2682 2683 0
2685 2683 676 0
2684 675 2683 0
2684 2683 2685 0
172 2684 2685 0
2687 2639 168 0
2686 663 2639 0
2686 2639 2687 0
677 2686 2687 0
2688 2636 663 0
2654 40 2636 0
2654 2636 2688 0
669 2654 2688 0
2689 2686 677 0
2688 663 2686 0
2688 2686 2689 0
669 2688 2689 0
2690 2689 677 0
2659 669 2689 0
2659 2689 2690 0
171 2659 2690 0
2692 2684 172 0
2691 675 2684 0
2691 2684 2692 0
678 2691 2692 0
2693 2681 675 0
2687 168 2681 0
2687 2681 2693 0
677 2687 2693 0
2694 2691 678 0
2693 675 2691 0
2693 2691 2694 0
677 2693 2694 0
2695 2694 678 0
2690 677 2694 0
2690 2694 2695 0
171 2690 2695 0
2697 2692 172 0
2696 678 2692 0
2696 2692 2697 0
679 2696 2697 0
2698 2695 678 0
2673 171 2695 0
2673 2695 2698 0
674 2673 2698 0
2699 2696 679 0
2698 678 2696 0
2698 2696 2699 0
674 2698 2699 0
2700 2699 679 0
2678 674 2699 0
2678 2699 2700 0
42 2678 2700 0
2702 2680 43 0
2701 676 2680 0
2701 2680 2702 0
681 2701 2702 0
2704 2685 676 0
2703 172 2685 0
2703 2685 2704 0
680 2703 2704 0
2705 2701 681 0
2704 676 2701 0
2704 2701 2705 0
680 2704 2705 0
2707 2705 681 0
2706 680 2705 0
2706 2705 2707 0
174 2706 2707 0
2709 2697 172 0
2708 679 2697 0
2708 2697 2709 0
683 2708 2709 0
2711 2700 679 0
2710 42 2700 0
2710 2700 2711 0
682 2710 2711 0
2712 2708 683 0
2711 679 2708 0
2711 2708 2712 0
682 2711 2712 0
2714 2712 683 0
2713 682 2712 0
2713 2712 2714 0
173 2713 2714 0
2716 2706 174 0
2715 680 2706 0
2715 2706 2716 0
684 2715 2716 0
2717 2703 680 0
2709 172 2703 0
2709 2703 2717 0
683 2709 2717 0
2718 2715 684 0
2717 680 2715 0
2717 2715 2718 0
683 2717 2718 0
2719 2718 684 0
2714 683 2718 0
2714 2718 2719 0
173 2714 2719 0
2721 2716 174 0
2720 684 2716 0
2720 2716 2721 0
686 2720 2721 0
2723 2719 684 0
2722 173 2719 0
2722 2719 2723 0
685 2722 2723 0
2724 2720 686 0
2723 684 2720 0
2723 2720 2724 0
685 2723 2724 0
2726 2724 686 0
2725 685 2724 0
2725 2724 2726 0
11 2725 2726 0
2728 2434 9 0
2727 612 2434 0
2727 2434 2728 0
688 2727 2728 0
2730 2431 612 0
2729 154 2431 0
2729 2431 2730 0
687 2729 2730 0
2731 2727 688 0
2730 612 2727 0
2730 2727 2731 0
687 2730 2731 0
2733 2731 688 0
2732 687 2731 0
2732 2731 2733 0
175 2732 2733 0
2734 2422 154 0
3799 3795 2422 0
3799 2422 2734 0
3800 3799 2734 0
2736 2732 175 0
2735 687 2732 0
2735 2732 2736 0
3801 2735 2736 0
2737 2729 687 0
2734 154 2729 0
2734 2729 2737 0
3800 2734 2737 0
3802 2735 3801 0
2737 687 2735 0
2737 2735 3802 0
3800 2737 3802 0
2738 2736 175 0
3803 3801 2736 0
3803 2736 2738 0
3804 3803 2738 0
2740 2725 11 0
2739 685 2725 0
2739 2725 2740 0
690 2739 2740 0
2742 2722 685 0
2741 173 2722 0
2741 2722 2742 0
689 2741 2742 0
2743 2739 690 0
2742 685 2739 0
2742 2739 2743 0
689 2742 2743 0
2745 2743 690 0
2744 689 2743 0
2744 2743 2745 0
177 2744 2745 0
2747 2713 173 0
2746 682 2713 0
2746 2713 2747 0
692 2746 2747 0
2749 2710 682 0
2748 42 2710 0
2748 2710 2749 0
691 2748 2749 0
2750 2746 692 0
2749 682 2746 0
2749 2746 2750 0
691 2749 2750 0
2752 2750 692 0
2751 691 2750 0
2751 2750 2752 0
176 2751 2752 0
2754 2744 177 0
2753 689 2744 0
2753 2744 2754 0
693 2753 2754 0
2755 2741 689 0
2747 173 2741 0
2747 2741 2755 0
692 2747 2755 0
2756 2753 693 0
2755 689 2753 0
2755 2753 2756 0
692 2755 2756 0
2757 2756 693 0
2752 692 2756 0
2752 2756 2757 0
176 2752 2757 0
2759 2754 177 0
2758 693 2754 0
2758 2754 2759 0
695 2758 2759 0
2761 2757 693 0
2760 176 2757 0
2760 2757 2761 0
694 2760 2761 0
2762 2758 695 0
2761 693 2758 0
2761 2758 2762 0
694 2761 2762 0
2764 2762 695 0
2763 694 2762 0
2763 2762 2764 0
3805 2763 2764 0
2766 2677 42 0
2765 673 2677 0
2765 2677 2766 0
697 2765 2766 0
2768 2674 673 0
2767 170 2674 0
2767 2674 2768 0
696 2767 2768 0
2769 2765 697 0
2768 673 2765 0
2768 2765 2769 0
696 2768 2769 0
2771 2769 697 0
2770 696 2769 0
2770 2769 2771 0
178 2770 2771 0
2773 2665 170 0
2772 670 2665 0
2772 2665 2773 0
698 2772 2773 0
2774 2662 670 0
2728 9 2662 0
2728 2662 2774 0
688 2728 2774 0
2775 2772 698 0
2774 670 2772 0
2774 2772 2775 0
688 2774 2775 0
2776 2775 698 0
2733 688 2775 0
2733 2775 2776 0
175 2733 2776 0
2778 2770 178 0
2777 696 2770 0
2777 2770 2778 0
699 2777 2778 0
2779 2767 696 0
2773 170 2767 0
2773 2767 2779 0
698 2773 2779 0
2780 2777 699 0
2779 696 2777 0
2779 2777 2780 0
698 2779 2780 0
2781 2780 699 0
2776 698 2780 0
2776 2780 2781 0
175 2776 2781 0
2783 2778 178 0
2782 699 2778 0
2782 2778 2783 0
700 2782 2783 0
2784 2781 699 0
2738 175 2781 0
2738 2781 2784 0
3804 2738 2784 0
2785 2782 700 0
2784 699 2782 0
2784 2782 2785 0
3804 2784 2785 0
3806 2785 700 0
3807 3804 2785 0
3807 2785 3806 0
3808 2763 3805 0
2786 694 2763 0
2786 2763 3808 0
3809 2786 3808 0
2788 2760 694 0
2787 176 2760 0
2787 2760 2788 0
701 2787 2788 0
2789 2786 3809 0
2788 694 2786 0
2788 2786 2789 0
701 2788 2789 0
3810 2789 3809 0
2790 701 2789 0
2790 2789 3810 0
3811 2790 3810 0
2792 2751 176 0
2791 691 2751 0
2791 2751 2792 0
702 2791 2792 0
2793 2748 691 0
2766 42 2748 0
2766 2748 2793 0
697 2766 2793 0
2794 2791 702 0
2793 691 2791 0
2793 2791 2794 0
697 2793 2794 0
2795 2794 702 0
2771 697 2794 0
2771 2794 2795 0
178 2771 2795 0
3812 2790 3811 0
2796 701 2790 0
2796 2790 3812 0
703 2796 3812 0
2797 2787 701 0
2792 176 2787 0
2792 2787 2797 0
702 2792 2797 0
2798 2796 703 0
2797 701 2796 0
2797 2796 2798 0
702 2797 2798 0
2799 2798 703 0
2795 702 2798 0
2795 2798 2799 0
178 2795 2799 0
3813 703 3812 0
2800 2799 703 0
2783 178 2799 0
2783 2799 2800 0
700 2783 2800 0
2800 703 3813 0
2800 3813 3814 0
700 2800 3814 0
3806 700 3814 0
2802 2740 11 0
2801 690 2740 0
2801 2740 2802 0
705 2801 2802 0
2804 2745 690 0
2803 177 2745 0
2803 2745 2804 0
704 2803 2804 0
2805 2801 705 0
2804 690 2801 0
2804 2801 2805 0
704 2804 2805 0
2807 2805 705 0
2806 704 2805 0
2806 2805 2807 0
180 2806 2807 0
2809 2759 177 0
2808 695 2759 0
2808 2759 2809 0
706 2808 2809 0
2810 2764 695 0
3815 3805 2764 0
3815 2764 2810 0
3816 3815 2810 0
2811 2808 706 0
2810 695 2808 0
2810 2808 2811 0
3816 2810 2811 0
2813 2811 706 0
2812 3816 2811 0
2812 2811 2813 0
179 2812 2813 0
2815 2806 180 0
2814 704 2806 0
2814 2806 2815 0
707 2814 2815 0
2816 2803 704 0
2809 177 2803 0
2809 2803 2816 0
706 2809 2816 0
2817 2814 707 0
2816 704 2814 0
2816 2814 2817 0
706 2816 2817 0
2818 2817 707 0
2813 706 2817 0
2813 2817 2818 0
179 2813 2818 0
2820 2815 180 0
2819 707 2815 0
2819 2815 2820 0
708 2819 2820 0
2821 2818 707 0
3817 179 2818 0
3817 2818 2821 0
3818 3817 2821 0
2822 2819 708 0
2821 707 2819 0
2821 2819 2822 0
3818 2821 2822 0
2823 2822 708 0
3819 3818 2822 0
3819 2822 2823 0
44 3819 2823 0
3820 3819 44 0
3821 179 3817 0
3822 2812 179 0
3823 3816 2812 0
3823 2812 3822 0
3822 179 3821 0
3824 3820 44 0
3825 2628 3798 0
2824 662 2628 0
2824 2628 3825 0
3826 2824 3825 0
2826 2633 662 0
2825 169 2633 0
2825 2633 2826 0
709 2825 2826 0
3827 2824 3826 0
2826 662 2824 0
2826 2824 3827 0
709 2826 3827 0
3828 709 3827 0
2828 2647 169 0
2827 667 2647 0
2827 2647 2828 0
711 2827 2828 0
2830 2652 667 0
2829 43 2652 0
2829 2652 2830 0
710 2829 2830 0
2831 2827 711 0
2830 667 2827 0
2830 2827 2831 0
710 2830 2831 0
2833 2831 711 0
2832 710 2831 0
2832 2831 2833 0
181 2832 2833 0
2834 709 3828 0
2834 3828 3829 0
3830 2834 3829 0
2835 2825 709 0
2828 169 2825 0
2828 2825 2835 0
711 2828 2835 0
2836 2834 3830 0
2835 709 2834 0
2835 2834 2836 0
711 2835 2836 0
2837 2836 3830 0
2833 711 2836 0
2833 2836 2837 0
181 2833 2837 0
3831 2837 3830 0
2838 181 2837 0
2838 2837 3831 0
3832 2838 3831 0
2840 2702 43 0
2839 681 2702 0
2839 2702 2840 0
713 2839 2840 0
2842 2707 681 0
2841 174 2707 0
2841 2707 2842 0
712 2841 2842 0
2843 2839 713 0
2842 681 2839 0
2842 2839 2843 0
712 2842 2843 0
2845 2843 713 0
2844 712 2843 0
2844 2843 2845 0
183 2844 2845 0
2847 2721 174 0
2846 686 2721 0
2846 2721 2847 0
715 2846 2847 0
2849 2726 686 0
2848 11 2726 0
2848 2726 2849 0
714 2848 2849 0
2850 2846 715 0
2849 686 2846 0
2849 2846 2850 0
714 2849 2850 0
2852 2850 715 0
2851 714 2850 0
2851 2850 2852 0
182 2851 2852 0
2854 2844 183 0
2853 712 2844 0
2853 2844 2854 0
716 2853 2854 0
2855 2841 712 0
2847 174 2841 0
2847 2841 2855 0
715 2847 2855 0
2856 2853 716 0
2855 712 2853 0
2855 2853 2856 0
715 2855 2856 0
2857 2856 716 0
2852 715 2856 0
2852 2856 2857 0
182 2852 2857 0
2859 2854 183 0
2858 716 2854 0
2858 2854 2859 0
718 2858 2859 0
2861 2857 716 0
2860 182 2857 0
2860 2857 2861 0
717 2860 2861 0
2862 2858 718 0
2861 716 2858 0
2861 2858 2862 0
717 2861 2862 0
2864 2862 718 0
2863 717 2862 0
2863 2862 2864 0
45 2863 2864 0
3833 2838 3832 0
2865 181 2838 0
2865 2838 3833 0
719 2865 3833 0
719 3833 3834 0
2866 719 3834 0
2866 3834 3835 0
3836 2866 3835 0
2868 2832 181 0
2867 710 2832 0
2867 2832 2868 0
720 2867 2868 0
2869 2829 710 0
2840 43 2829 0
2840 2829 2869 0
713 2840 2869 0
2870 2867 720 0
2869 710 2867 0
2869 2867 2870 0
713 2869 2870 0
2871 2870 720 0
2845 713 2870 0
2845 2870 2871 0
183 2845 2871 0
2873 2866 3836 0
2872 719 2866 0
2872 2866 2873 0
721 2872 2873 0
2874 2865 719 0
2868 181 2865 0
2868 2865 2874 0
720 2868 2874 0
2875 2872 721 0
2874 719 2872 0
2874 2872 2875 0
720 2874 2875 0
2876 2875 721 0
2871 720 2875 0
2871 2875 2876 0
183 2871 2876 0
2878 2873 3836 0
2877 721 2873 0
2877 2873 2878 0
722 2877 2878 0
2879 2876 721 0
2859 183 2876 0
2859 2876 2879 0
718 2859 2879 0
2880 2877 722 0
2879 721 2877 0
2879 2877 2880 0
718 2879 2880 0
2881 2880 722 0
2864 718 2880 0
2864 2880 2881 0
45 2864 2881 0
3837 2878 3836 0
3838 722 2878 0
3838 2878 3837 0
3839 2881 722 0
2882 45 2881 0
2882 2881 3839 0
3840 2882 3839 0
3839 722 3838 0
2884 2802 11 0
2883 705 2802 0
2883 2802 2884 0
724 2883 2884 0
2886 2807 705 0
2885 180 2807 0
2885 2807 2886 0
723 2885 2886 0
2887 2883 724 0
2886 705 2883 0
2886 2883 2887 0
723 2886 2887 0
2889 2887 724 0
2888 723 2887 0
2888 2887 2889 0
185 2888 2889 0
2891 2820 180 0
2890 708 2820 0
2890 2820 2891 0
726 2890 2891 0
2893 2823 708 0
2892 44 2823 0
2892 2823 2893 0
725 2892 2893 0
2894 2890 726 0
2893 708 2890 0
2893 2890 2894 0
725 2893 2894 0
2896 2894 726 0
2895 725 2894 0
2895 2894 2896 0
184 2895 2896 0
2898 2888 185 0
2897 723 2888 0
2897 2888 2898 0
727 2897 2898 0
2899 2885 723 0
2891 180 2885 0
2891 2885 2899 0
726 2891 2899 0
2900 2897 727 0
2899 723 2897 0
2899 2897 2900 0
726 2899 2900 0
2901 2900 727 0
2896 726 2900 0
2896 2900 2901 0
184 2896 2901 0
2903 2898 185 0
2902 727 2898 0
2902 2898 2903 0
729 2902 2903 0
2905 2901 727 0
2904 184 2901 0
2904 2901 2905 0
728 2904 2905 0
2906 2902 729 0
2905 727 2902 0
2905 2902 2906 0
728 2905 2906 0
2908 2906 729 0
2907 728 2906 0
2907 2906 2908 0
46 2907 2908 0
2909 3824 44 0
3841 3824 2909 0
730 3841 2909 0
3842 3841 730 0
2910 3842 730 0
3843 3842 2910 0
186 3843 2910 0
3844 3843 186 0
2911 3844 186 0
3845 3844 2911 0
3846 3845 2911 0
2913 2907 46 0
2912 728 2907 0
2912 2907 2913 0
732 2912 2913 0
2915 2904 728 0
2914 184 2904 0
2914 2904 2915 0
731 2914 2915 0
2916 2912 732 0
2915 728 2912 0
2915 2912 2916 0
731 2915 2916 0
2918 2916 732 0
2917 731 2916 0
2917 2916 2918 0
187 2917 2918 0
2920 2895 184 0
2919 725 2895 0
2919 2895 2920 0
733 2919 2920 0
2921 2892 725 0
2909 44 2892 0
2909 2892 2921 0
730 2909 2921 0
2922 2919 733 0
2921 725 2919 0
2921 2919 2922 0
730 2921 2922 0
2923 2922 733 0
2910 730 2922 0
2910 2922 2923 0
186 2910 2923 0
2925 2917 187 0
2924 731 2917 0
2924 2917 2925 0
734 2924 2925 0
2926 2914 731 0
2920 184 2914 0
2920 2914 2926 0
733 2920 2926 0
2927 2924 734 0
2926 731 2924 0
2926 2924 2927 0
733 2926 2927 0
2928 2927 734 0
2923 733 2927 0
2923 2927 2928 0
186 2923 2928 0
2930 2925 187 0
2929 734 2925 0
2929 2925 2930 0
735 2929 2930 0
2931 2928 734 0
2911 186 2928 0
2911 2928 2931 0
3846 2911 2931 0
2932 2929 735 0
2931 734 2929 0
2931 2929 2932 0
3846 2931 2932 0
3847 2932 735 0
3848 3846 2932 0
3848 2932 3847 0
2934 2913 46 0
2933 732 2913 0
2933 2913 2934 0
737 2933 2934 0
2936 2918 732 0
2935 187 2918 0
2935 2918 2936 0
736 2935 2936 0
2937 2933 737 0
2936 732 2933 0
2936 2933 2937 0
736 2936 2937 0
2939 2937 737 0
2938 736 2937 0
2938 2937 2939 0
188 2938 2939 0
2941 2930 187 0
2940 735 2930 0
2940 2930 2941 0
738 2940 2941 0
3849 3847 735 0
3850 2940 738 0
3849 735 2940 0
3849 2940 3850 0
3851 3850 738 0
2943 2938 188 0
2942 736 2938 0
2942 2938 2943 0
3852 2942 2943 0
2944 2935 736 0
2941 187 2935 0
2941 2935 2944 0
738 2941 2944 0
2945 2942 3852 0
2944 736 2942 0
2944 2942 2945 0
738 2944 2945 0
3853 2945 3852 0
3851 738 2945 0
3851 2945 3853 0
3854 2943 188 0
3855 3852 2943 0
3855 2943 3854 0
3856 2882 3840 0
2946 45 2882 0
2946 2882 3856 0
3857 2946 3856 0
2948 2863 45 0
2947 717 2863 0
2947 2863 2948 0
740 2947 2948 0
2950 2860 717 0
2949 182 2860 0
2949 2860 2950 0
739 2949 2950 0
2951 2947 740 0
2950 717 2947 0
2950 2947 2951 0
739 2950 2951 0
2953 2951 740 0
2952 739 2951 0
2952 2951 2953 0
189 2952 2953 0
2955 2851 182 0
2954 714 2851 0
2954 2851 2955 0
741 2954 2955 0
2956 2848 714 0
2884 11 2848 0
2884 2848 2956 0
724 2884 2956 0
2957 2954 741 0
2956 714 2954 0
2956 2954 2957 0
724 2956 2957 0
2958 2957 741 0
2889 724 2957 0
2889 2957 2958 0
185 2889 2958 0
2960 2952 189 0
2959 739 2952 0
2959 2952 2960 0
742 2959 2960 0
2961 2949 739 0
2955 182 2949 0
2955 2949 2961 0
741 2955 2961 0
2962 2959 742 0
2961 739 2959 0
2961 2959 2962 0
741 2961 2962 0
2963 2962 742 0
2958 741 2962 0
2958 2962 2963 0
185 2958 2963 0
2965 2960 189 0
2964 742 2960 0
2964 2960 2965 0
743 2964 2965 0
2966 2963 742 0
2903 185 2963 0
2903 2963 2966 0
729 2903 2966 0
2967 2964 743 0
2966 742 2964 0
2966 2964 2967 0
729 2966 2967 0
2968 2967 743 0
2908 729 2967 0
2908 2967 2968 0
46 2908 2968 0
2970 3858 3859 0
2969 3860 3858 0
2969 3858 2970 0
190 2969 2970 0
2972 3861 3862 0
2971 3857 3861 0
2971 3861 2972 0
744 2971 2972 0
2973 2946 3857 0
2948 45 2946 0
2948 2946 2973 0
740 2948 2973 0
2974 2971 744 0
2973 3857 2971 0
2973 2971 2974 0
740 2973 2974 0
2975 2974 744 0
2953 740 2974 0
2953 2974 2975 0
189 2953 2975 0
2977 2969 190 0
2976 3860 2969 0
2976 2969 2977 0
745 2976 2977 0
2978 3863 3860 0
2972 3862 3863 0
2972 3863 2978 0
744 2972 2978 0
2979 2976 745 0
2978 3860 2976 0
2978 2976 2979 0
744 2978 2979 0
2980 2979 745 0
2975 744 2979 0
2975 2979 2980 0
189 2975 2980 0
2982 2977 190 0
2981 745 2977 0
2981 2977 2982 0
746 2981 2982 0
2983 2980 745 0
2965 189 2980 0
2965 2980 2983 0
743 2965 2983 0
2984 2981 746 0
2983 745 2981 0
2983 2981 2984 0
743 2983 2984 0
2985 2984 746 0
2968 743 2984 0
2968 2984 2985 0
46 2968 2985 0
2987 2970 3859 0
2986 190 2970 0
2986 2970 2987 0
3864 2986 2987 0
2987 3859 3865 0
2987 3865 3866 0
3864 2987 3866 0
2989 2982 190 0
2988 746 2982 0
2988 2982 2989 0
747 2988 2989 0
2990 2985 746 0
2934 46 2985 0
2934 2985 2990 0
737 2934 2990 0
2991 2988 747 0
2990 746 2988 0
2990 2988 2991 0
737 2990 2991 0
2992 2991 747 0
2939 737 2991 0
2939 2991 2992 0
188 2939 2992 0
2993 2986 3864 0
2989 190 2986 0
2989 2986 2993 0
747 2989 2993 0
2994 3867 3868 0
2993 3864 3867 0
2993 3867 2994 0
747 2993 2994 0
2995 2994 3868 0
2992 747 2994 0
2992 2994 2995 0
188 2992 2995 0
3869 2995 3868 0
3854 188 2995 0
3854 2995 3869 0
2997 1298 3656 0
2996 332 1298 0
2996 1298 2997 0
749 2996 2997 0
2999 1303 332 0
2998 82 1303 0
2998 1303 2999 0
748 2998 2999 0
3000 2996 749 0
2999 332 2996 0
2999 2996 3000 0
748 2999 3000 0
3002 3000 749 0
3001 748 3000 0
3001 3000 3002 0
192 3001 3002 0
3004 1317 82 0
3003 337 1317 0
3003 1317 3004 0
751 3003 3004 0
3006 1322 337 0
3005 22 1322 0
3005 1322 3006 0
750 3005 3006 0
3007 3003 751 0
3006 337 3003 0
3006 3003 3007 0
750 3006 3007 0
3009 3007 751 0
3008 750 3007 0
3008 3007 3009 0
191 3008 3009 0
3011 3001 192 0
3010 748 3001 0
3010 3001 3011 0
752 3010 3011 0
3012 2998 748 0
3004 82 2998 0
3004 2998 3012 0
751 3004 3012 0
3013 3010 752 0
3012 748 3010 0
3012 3010 3013 0
751 3012 3013 0
3014 3013 752 0
3009 751 3013 0
3009 3013 3014 0
191 3009 3014 0
3016 3011 192 0
3015 752 3011 0
3015 3011 3016 0
754 3015 3016 0
3018 3014 752 0
3017 191 3014 0
3017 3014 3018 0
753 3017 3018 0
3019 3015 754 0
3018 752 3015 0
3018 3015 3019 0
753 3018 3019 0
3021 3019 754 0
3020 753 3019 0
3020 3019 3021 0
48 3020 3021 0
3023 1372 22 0
3022 351 1372 0
3022 1372 3023 0
756 3022 3023 0
3025 1377 351 0
3024 87 1377 0
3024 1377 3025 0
755 3024 3025 0
3026 3022 756 0
3025 351 3022 0
3025 3022 3026 0
755 3025 3026 0
3028 3026 756 0
3027 755 3026 0
3027 3026 3028 0
194 3027 3028 0
3030 1391 87 0
3029 356 1391 0
3029 1391 3030 0
758 3029 3030 0
3032 1396 356 0
3031 6 1396 0
3031 1396 3032 0
757 3031 3032 0
3033 3029 758 0
3032 356 3029 0
3032 3029 3033 0
757 3032 3033 0
3035 3033 758 0
3034 757 3033 0
3034 3033 3035 0
193 3034 3035 0
3037 3027 194 0
3036 755 3027 0
3036 3027 3037 0
759 3036 3037 0
3038 3024 755 0
3030 87 3024 0
3030 3024 3038 0
758 3030 3038 0
3039 3036 759 0
3038 755 3036 0
3038 3036 3039 0
758 3038 3039 0
3040 3039 759 0
3035 758 3039 0
3035 3039 3040 0
193 3035 3040 0
3042 3037 194 0
3041 759 3037 0
3041 3037 3042 0
761 3041 3042 0
3044 3040 759 0
3043 193 3040 0
3043 3040 3044 0
760 3043 3044 0
3045 3041 761 0
3044 759 3041 0
3044 3041 3045 0
760 3044 3045 0
3047 3045 761 0
3046 760 3045 0
3046 3045 3047 0
47 3046 3047 0
3049 3020 48 0
3048 753 3020 0
3048 3020 3049 0
763 3048 3049 0
3051 3017 753 0
3050 191 3017 0
3050 3017 3051 0
762 3050 3051 0
3052 3048 763 0
3051 753 3048 0
3051 3048 3052 0
762 3051 3052 0
3054 3052 763 0
3053 762 3052 0
3053 3052 3054 0
195 3053 3054 0
3056 3008 191 0
3055 750 3008 0
3055 3008 3056 0
764 3055 3056 0
3057 3005 750 0
3023 22 3005 0
3023 3005 3057 0
756 3023 3057 0
3058 3055 764 0
3057 750 3055 0
3057 3055 3058 0
756 3057 3058 0
3059 3058 764 0
3028 756 3058 0
3028 3058 3059 0
194 3028 3059 0
3061 3053 195 0
3060 762 3053 0
3060 3053 3061 0
765 3060 3061 0
3062 3050 762 0
3056 191 3050 0
3056 3050 3062 0
764 3056 3062 0
3063 3060 765 0
3062 762 3060 0
3062 3060 3063 0
764 3062 3063 0
3064 3063 765 0
3059 764 3063 0
3059 3063 3064 0
194 3059 3064 0
3066 3061 195 0
3065 765 3061 0
3065 3061 3066 0
766 3065 3066 0
3067 3064 765 0
3042 194 3064 0
3042 3064 3067 0
761 3042 3067 0
3068 3065 766 0
3067 765 3065 0
3067 3065 3068 0
761 3067 3068 0
3069 3068 766 0
3047 761 3068 0
3047 3068 3069 0
47 3047 3069 0
3071 3049 48 0
3070 763 3049 0
3070 3049 3071 0
768 3070 3071 0
3073 3054 763 0
3072 195 3054 0
3072 3054 3073 0
767 3072 3073 0
3074 3070 768 0
3073 763 3070 0
3073 3070 3074 0
767 3073 3074 0
3076 3074 768 0
3075 767 3074 0
3075 3074 3076 0
197 3075 3076 0
3078 3066 195 0
3077 766 3066 0
3077 3066 3078 0
770 3077 3078 0
3080 3069 766 0
3079 47 3069 0
3079 3069 3080 0
769 3079 3080 0
3081 3077 770 0
3080 766 3077 0
3080 3077 3081 0
769 3080 3081 0
3083 3081 770 0
3082 769 3081 0
3082 3081 3083 0
196 3082 3083 0
3085 3075 197 0
3084 767 3075 0
3084 3075 3085 0
771 3084 3085 0
3086 3072 767 0
3078 195 3072 0
3078 3072 3086 0
770 3078 3086 0
3087 3084 771 0
3086 767 3084 0
3086 3084 3087 0
770 3086 3087 0
3088 3087 771 0
3083 770 3087 0
3083 3087 3088 0
196 3083 3088 0
3090 3085 197 0
3089 771 3085 0
3089 3085 3090 0
773 3089 3090 0
3092 3088 771 0
3091 196 3088 0
3091 3088 3092 0
772 3091 3092 0
3093 3089 773 0
3092 771 3089 0
3092 3089 3093 0
772 3092 3093 0
3095 3093 773 0
3094 772 3093 0
3094 3093 3095 0
12 3094 3095 0
3097 1590 6 0
3096 406 1590 0
3096 1590 3097 0
775 3096 3097 0
3099 1595 406 0
3098 101 1595 0
3098 1595 3099 0
774 3098 3099 0
3100 3096 775 0
3099 406 3096 0
3099 3096 3100 0
774 3099 3100 0
3102 3100 775 0
3101 774 3100 0
3101 3100 3102 0
199 3101 3102 0
3104 1609 101 0
3103 411 1609 0
3103 1609 3104 0
777 3103 3104 0
3106 1614 411 0
3105 27 1614 0
3105 1614 3106 0
776 3105 3106 0
3107 3103 777 0
3106 411 3103 0
3106 3103 3107 0
776 3106 3107 0
3109 3107 777 0
3108 776 3107 0
3108 3107 3109 0
198 3108 3109 0
3111 3101 199 0
3110 774 3101 0
3110 3101 3111 0
778 3110 3111 0
3112 3098 774 0
3104 101 3098 0
3104 3098 3112 0
777 3104 3112 0
3113 3110 778 0
3112 774 3110 0
3112 3110 3113 0
777 3112 3113 0
3114 3113 778 0
3109 777 3113 0
3109 3113 3114 0
198 3109 3114 0
3116 3111 199 0
3115 778 3111 0
3115 3111 3116 0
780 3115 3116 0
3118 3114 778 0
3117 198 3114 0
3117 3114 3118 0
779 3117 3118 0
3119 3115 780 0
3118 778 3115 0
3118 3115 3119 0
779 3118 3119 0
3121 3119 780 0
3120 779 3119 0
3120 3119 3121 0
49 3120 3121 0
3123 1664 27 0
3122 425 1664 0
3122 1664 3123 0
782 3122 3123 0
3125 1669 425 0
3124 106 1669 0
3124 1669 3125 0
781 3124 3125 0
3126 3122 782 0
3125 425 3122 0
3125 3122 3126 0
781 3125 3126 0
3128 3126 782 0
3127 781 3126 0
3127 3126 3128 0
200 3127 3128 0
3130 1683 106 0
3129 430 1683 0
3129 1683 3130 0
783 3129 3130 0
3131 1688 430 0
2004 0 1688 0
2004 1688 3131 0
504 2004 3131 0
3132 3129 783 0
3131 430 3129 0
3131 3129 3132 0
504 3131 3132 0
3133 3132 783 0
2009 504 3132 0
2009 3132 3133 0
126 2009 3133 0
3135 3127 200 0
3134 781 3127 0
3134 3127 3135 0
784 3134 3135 0
3136 3124 781 0
3130 106 3124 0
3130 3124 3136 0
783 3130 3136 0
3137 3134 784 0
3136 781 3134 0
3136 3134 3137 0
783 3136 3137 0
3138 3137 784 0
3133 783 3137 0
3133 3137 3138 0
126 3133 3138 0
3140 3135 200 0
3139 784 3135 0
3139 3135 3140 0
785 3139 3140 0
3141 3138 784 0
2022 126 3138 0
2022 3138 3141 0
508 2022 3141 0
3142 3139 785 0
3141 784 3139 0
3141 3139 3142 0
508 3141 3142 0
3143 3142 785 0
2027 508 3142 0
2027 3142 3143 0
31 2027 3143 0
3145 3120 49 0
3144 779 3120 0
3144 3120 3145 0
787 3144 3145 0
3147 3117 779 0
3146 198 3117 0
3146 3117 3147 0
786 3146 3147 0
3148 3144 787 0
3147 779 3144 0
3147 3144 3148 0
786 3147 3148 0
3150 3148 787 0
3149 786 3148 0
3149 3148 3150 0
201 3149 3150 0
3152 3108 198 0
3151 776 3108 0
3151 3108 3152 0
788 3151 3152 0
3153 3105 776 0
3123 27 3105 0
3123 3105 3153 0
782 3123 3153 0
3154 3151 788 0
3153 776 3151 0
3153 3151 3154 0
782 3153 3154 0
3155 3154 788 0
3128 782 3154 0
3128 3154 3155 0
200 3128 3155 0
3157 3149 201 0
3156 786 3149 0
3156 3149 3157 0
789 3156 3157 0
3158 3146 786 0
3152 198 3146 0
3152 3146 3158 0
788 3152 3158 0
3159 3156 789 0
3158 786 3156 0
3158 3156 3159 0
788 3158 3159 0
3160 3159 789 0
3155 788 3159 0
3155 3159 3160 0
200 3155 3160 0
3162 3157 201 0
3161 789 3157 0
3161 3157 3162 0
790 3161 3162 0
3163 3160 789 0
3140 200 3160 0
3140 3160 3163 0
785 3140 3163 0
3164 3161 790 0
3163 789 3161 0
3163 3161 3164 0
785 3163 3164 0
3165 3164 790 0
3143 785 3164 0
3143 3164 3165 0
31 3143 3165 0
3167 3145 49 0
3166 787 3145 0
3166 3145 3167 0
792 3166 3167 0
3169 3150 787 0
3168 201 3150 0
3168 3150 3169 0
791 3168 3169 0
3170 3166 792 0
3169 787 3166 0
3169 3166 3170 0
791 3169 3170 0
3172 3170 792 0
3171 791 3170 0
3171 3170 3172 0
202 3171 3172 0
3174 3162 201 0
3173 790 3162 0
3173 3162 3174 0
793 3173 3174 0
3175 3165 790 0
2045 31 3165 0
2045 3165 3175 0
515 2045 3175 0
3176 3173 793 0
3175 790 3173 0
3175 3173 3176 0
515 3175 3176 0
3177 3176 793 0
2050 515 3176 0
2050 3176 3177 0
129 2050 3177 0
3179 3171 202 0
3178 791 3171 0
3178 3171 3179 0
794 3178 3179 0
3180 3168 791 0
3174 201 3168 0
3174 3168 3180 0
793 3174 3180 0
3181 3178 794 0
3180 791 3178 0
3180 3178 3181 0
793 3180 3181 0
3182 3181 794 0
3177 793 3181 0
3177 3181 3182 0
129 3177 3182 0
3184 3179 202 0
3183 794 3179 0
3183 3179 3184 0
795 3183 3184 0
3185 3182 794 0
2064 129 3182 0
2064 3182 3185 0
520 2064 3185 0
3186 3183 795 0
3185 794 3183 0
3185 3183 3186 0
520 3185 3186 0
3187 3186 795 0
2069 520 3186 0
2069 3186 3187 0
7 2069 3187 0
3189 3094 12 0
3188 772 3094 0
3188 3094 3189 0
797 3188 3189 0
3191 3091 772 0
3190 196 3091 0
3190 3091 3191 0
796 3190 3191 0
3192 3188 797 0
3191 772 3188 0
3191 3188 3192 0
796 3191 3192 0
