#!ascii - generated by CreateLabelFiles project 
3827 7340
-1.96562 -19.2518 20.2344 0
-1.51264 -18.8584 18.2745 0
-1.46152 -18.4497 14.1685 0
-4.82986 -19.5176 15.4332 0
-2.19724 -21.3912 14.8069 0
0.436412 -20.6346 12.4173 0
-0.249887 -25.5234 14.9625 0
2.12553 -21.9649 12.8494 0
3.433 -22.6197 13.88 0
4.70683 -22.8509 15.8627 0
1.99519 3.20927 32.8194 0
1.45063 3.89674 31.8994 0
3.30265 4.32151 33.0274 0
4.11379 4.63539 32.5735 0
4.95073 4.26048 33.3064 0
3.50195 6.59265 28.5059 0
3.16912 6.29612 30.1184 0
3.17539 5.32456 31.9375 0
4.23371 4.54324 31.2779 0
1.87663 5.71377 31.379 0
2.91653 5.92098 31.1226 0
3.87103 5.91087 30.5865 0
3.12674 4.57003 30.1554 0
3.2516 4.02999 30.6726 0
4.35956 5.58763 29.694 0
3.38801 5.34166 29.9122 0
2.27674 4.29498 28.9533 0
1.91479 4.10922 27.8275 0
0.807511 3.86132 28.2219 0
4.67539 6.88949 20.7755 0
5.44151 6.10927 20.6138 0
6.62252 7.53996 22.4667 0
5.2952 8.55993 16.5087 0
4.87599 6.44544 18.2743 0
6.38762 5.69557 20.7875 0
6.71375 4.60259 21.3953 0
8.15879 6.33738 23.3364 0
3.31831 4.72803 27.8286 0
2.0739 3.7978 26.8159 0
5.01569 6.11598 28.9016 0
4.46749 5.69524 28.4803 0
4.97993 5.4136 27.7645 0
6.8161 6.12661 27.7752 0
5.91792 5.10971 27.1304 0
4.17647 7.03359 26.5944 0
4.93491 6.75464 28.4537 0
6.66436 9.06811 23.6514 0
7.45749 7.2184 27.9218 0
8.30233 7.99878 27.9656 0
6.37095 6.99428 28.287 0
7.5323 7.67229 25.7637 0
7.48621 8.7292 24.0211 0
9.57362 8.83368 26.4396 0
9.03445 8.37518 28.4339 0
8.70917 8.7029 24.339 0
9.52914 8.27866 24.8044 0
10.1107 7.53887 25.479 0
2.65144 3.432 25.935 0
1.2466 2.78017 25.6708 0
7.39276 5.76623 26.1381 0
4.88183 4.21733 26.4442 0
3.63926 3.13681 25.1683 0
4.44998 1.98544 25.918 0
2.58007 2.45659 23.2359 0
10.0306 8.61351 29.0372 0
8.98025 7.18544 28.1256 0
10.5218 6.50314 26.4153 0
11.096 8.28285 27.6687 0
10.9177 8.24603 29.7902 0
11.6186 7.38492 30.8462 0
10.6216 6.9633 30.7583 0
7.63298 3.44579 27.2628 0
6.03544 1.77238 27.0518 0
8.83382 5.43544 27.5837 0
9.90273 4.96847 29.0034 0
10.3207 4.74251 30.4269 0
7.19815 1.49047 28.0592 0
5.11082 0.534453 25.4422 0
10.6198 4.52477 31.9078 0
9.20034 2.65241 29.9486 0
7.85513 0.837974 29.2378 0
8.63521 0.316685 30.2949 0
7.0219 -0.465739 27.7057 0
10.0438 2.0554 32.3865 0
9.61555 -0.0623776 30.8437 0
11.826 5.62158 32.8075 0
10.8395 3.97948 33.0828 0
10.8357 2.71261 34.3006 0
11.9143 2.03864 34.8347 0
11.2306 0.871254 34.4904 0
12.1744 5.94533 30.2034 0
12.2234 6.05965 31.8437 0
9.38071 4.38378 24.7359 0
11.2391 5.21739 27.7975 0
11.6998 3.51213 29.3788 0
11.6145 1.03154 28.2078 0
12.1519 1.56385 30.9654 0
12.2885 2.48781 34.1691 0
12.348 4.32766 32.8916 0
12.3333 2.2371 32.8501 0
12.593 0.337051 32.27 0
6.30224 4.24809 18.6287 0
7.45931 3.83816 21.6471 0
6.19073 7.32442 16.7535 0
6.80597 5.26009 16.7463 0
7.77539 5.50526 16.4104 0
8.51787 2.52114 18.3797 0
8.41646 8.89921 17.1344 0
8.80451 6.09564 16.6822 0
9.59153 6.13776 17.3282 0
10.065 1.93559 18.0549 0
12.8394 -1.08381 28.9562 0
10.9405 1.22423 24.2684 0
11.7403 -0.642185 26.8283 0
9.23937 2.52058 22.6356 0
9.72958 1.096 21.1661 0
10.1875 0.278433 20.4251 0
13.3695 -0.748483 24.8602 0
12.3094 -1.18545 25.6681 0
11.8969 -0.536774 22.4235 0
11.0894 0.469008 20.05 0
10.3987 -1.00789 31.1733 0
9.44703 -1.71939 29.0194 0
1.63236 3.17052 30.3898 0
3.3596 3.1419 31.3005 0
0.0642181 2.61795 27.4831 0
0.459698 2.92666 28.9484 0
0.293413 2.17457 29.8362 0
0.0128082 1.14375 28.9173 0
0.639734 1.02159 30.3114 0
0.894665 0.160807 31.278 0
1.1175 -0.731601 30.0452 0
0.781126 1.96239 24.1824 0
0.246537 2.25236 25.8595 0
2.33639 1.55941 21.7727 0
1.33099 2.0334 22.5053 0
0.562353 0.988338 22.7494 0
-0.127641 0.426528 21.2677 0
-0.21254 0.248532 23.1137 0
4.87351 -0.347069 23.1785 0
3.62415 0.518328 22.3062 0
7.43687 -1.38033 25.4853 0
6.251 -0.784676 24.2035 0
4.7669 -1.27109 21.5456 0
4.74897 -2.00588 20.4429 0
3.36784 -1.2781 19.534 0
0.599039 0.522198 19.5793 0
-1.01687 0.0399532 20.3858 0
2.4031 0.927702 19.9904 0
2.04572 -0.129188 19.0436 0
1.7014 -1.24869 18.8558 0
-1.71047 -1.04188 20.3847 0
-2.15392 -0.828021 21.3884 0
1.34304 -2.21836 19.0515 0
-0.345732 -1.61994 19.3141 0
-2.45068 -2.01361 20.2155 0
-2.83896 -3.02672 20.2859 0
-4.00037 -2.5672 20.934 0
1.52282 -2.35881 28.5566 0
1.05242 -0.766104 27.8208 0
1.2078 -1.59446 28.2633 0
0.184863 -2.14823 27.0175 0
-1.57263 -1.83167 25.7347 0
-1.45909 -2.52968 26.2767 0
0.26017 0.921229 26.8158 0
0.908582 -0.00244537 27.3016 0
-0.161217 1.66133 26.2929 0
-0.0450319 0.424435 24.979 0
-0.625536 -0.243166 23.7122 0
-1.26523 -1.45833 25.0109 0
-3.06489 -1.8285 24.3859 0
0.130528 -0.947611 26.0756 0
-0.922064 -0.958375 24.3596 0
-1.72399 -1.03271 22.6892 0
-3.64758 -2.28497 23.0484 0
-4.12735 -2.77372 23.7863 0
-3.02536 -1.59291 22.2446 0
-4.07114 -2.51809 21.8382 0
-4.91387 -3.36619 21.4525 0
0.912032 -3.20767 28.0037 0
-3.01982 -3.12114 25.792 0
-1.09633 -3.19959 26.7567 0
-0.6547 -3.54177 27.6529 0
-2.04357 -4.15051 27.354 0
0.044693 -3.76837 28.6344 0
-5.13232 -3.62347 23.2256 0
-4.02867 -3.37431 24.5909 0
-4.71167 -4.61665 21.098 0
-5.14369 -4.05498 22.0104 0
-5.21167 -4.73142 22.6912 0
-4.91176 -5.61151 22.0218 0
-5.15796 -5.32194 23.3186 0
-3.92156 -4.12983 26.398 0
-3.13807 -4.77662 26.8837 0
-4.17589 -3.61624 25.5984 0
-4.74638 -4.648 24.9331 0
-4.88218 -5.7651 24.069 0
-3.68228 -5.5685 26.2253 0
-2.63644 -4.98636 27.7417 0
-4.13822 -6.14499 23.6725 0
-4.16221 -5.83086 24.887 0
-3.94587 -6.00408 25.6852 0
-3.39474 -6.41467 25.2417 0
-4.40266 -6.48041 26.4393 0
9.74646 -2.79511 27.0226 0
8.56786 -2.08174 26.4352 0
10.3413 -4.01615 27.5275 0
9.64798 -3.89243 25.4384 0
9.53629 -4.81558 24.2451 0
8.78337 -3.77774 23.6007 0
10.7488 -5.62537 24.4465 0
9.06328 -5.79303 23.2842 0
7.09823 -6.72241 23.7804 0
6.36617 -5.85084 22.8078 0
-3.04287 -6.66009 24.3609 0
-2.87709 -7.00131 24.9582 0
-3.88947 -6.35615 22.6668 0
-3.50993 -6.53144 23.5505 0
-2.9738 -6.99313 23.4992 0
-2.71292 -7.22498 22.5066 0
-2.49519 -7.42249 23.3892 0
-4.52918 -6.11737 20.8898 0
-4.14932 -6.11377 21.7842 0
-3.77678 -5.05562 20.3315 0
-4.30378 -5.7037 20.5187 0
-3.48554 -6.26625 20.4678 0
-2.05655 -6.28957 19.9296 0
-2.14579 -6.45855 20.3835 0
-2.50204 -6.84124 21.73 0
-1.99103 -7.48445 21.3989 0
-3.38005 -6.51095 21.7561 0
-2.14543 -6.48138 21.0732 0
-1.15943 -6.99522 20.1158 0
-1.79711 -8.08152 20.1813 0
-2.26422 -8.24718 20.8466 0
-0.931704 -7.84703 18.7734 0
-1.37122 -7.89531 19.5105 0
-1.82773 -8.98015 19.2241 0
-1.69399 -9.60363 18.3168 0
-2.07318 -9.88993 18.9023 0
-1.44529 -3.48483 19.7995 0
-2.87758 -4.17414 20.1427 0
2.75502 -2.75262 19.426 0
0.668985 -3.0458 19.8042 0
0.0336285 -3.92378 20.579 0
1.35915 -4.50517 21.0643 0
0.0278204 -4.67913 20.1461 0
6.25005 -2.40998 21.7869 0
4.48303 -2.56148 20.0861 0
7.82068 -2.19757 23.8129 0
7.91616 -2.97111 22.6367 0
7.35307 -3.54917 22.1586 0
2.81977 -3.68388 21.7148 0
2.22197 -4.75902 22.1724 0
3.89532 -3.24288 20.5361 0
4.76754 -3.57253 21.6171 0
5.71174 -4.25148 22.5713 0
2.76684 -5.39085 23.4168 0
2.53584 -6.53545 21.3121 0
4.4063 -5.4719 23.3587 0
3.31856 -6.26585 24.3587 0
3.31361 -7.91433 23.9732 0
-1.08905 -9.60686 17.8618 0
-1.54499 -10.4877 18.5683 0
-0.32393 -7.8933 18.1406 0
-0.498518 -8.73673 17.9197 0
-0.193386 -9.77949 17.6606 0
0.679494 -9.93387 17.874 0
0.0961085 -10.9048 18.6237 0
-1.71285 -5.81237 19.7759 0
-0.223793 -6.63787 18.9036 0
-2.45208 -4.98259 20.1471 0
-1.12259 -5.24052 19.2849 0
1.08024 -5.78164 18.9225 0
1.13528 -8.90671 17.5186 0
1.53708 -9.95362 18.7465 0
0.388364 -7.87142 17.5715 0
1.5124 -7.58611 17.5465 0
2.41549 -7.15085 19.1306 0
2.19435 -9.99382 19.8712 0
1.91254 -11.0519 20.0283 0
2.87271 -8.46911 20.1524 0
3.06357 -9.62963 21.3297 0
-1.52745 -12.3031 19.2339 0
-2.17635 -12.0152 18.6363 0
0.183572 -12.0802 19.7919 0
-0.63331 -12.204 19.4449 0
-0.814026 -13.7656 20.0146 0
0.195198 -14.4128 20.2131 0
0.266793 -14.2451 19.4366 0
1.0683 -12.1776 20.3405 0
-0.0848082 -14.5763 21.0111 0
1.5068 -15.1266 19.9797 0
-0.00762707 -13.445 20.8128 0
2.74576 -15.9199 19.6725 0
2.76052 -15.7505 18.429 0
3.79979 -17.1337 19.3601 0
5.00612 -18.0576 17.5355 0
-2.1647 -7.54659 24.8243 0
-3.17175 -7.86665 25.4682 0
-2.39994 -8.01403 23.0643 0
-2.19639 -7.71048 24.1148 0
-2.18033 -8.20172 24.5668 0
-2.5904 -8.92981 24.2457 0
-2.65662 -8.94719 25.0238 0
-2.57082 -9.03467 20.4868 0
-2.48651 -8.34622 21.6531 0
-2.48631 -10.2206 18.153 0
-2.50222 -10.0823 19.6103 0
-3.08104 -9.56234 20.135 0
-3.81678 -9.38281 19.6033 0
-3.57436 -9.31982 20.9201 0
-2.63013 -9.10842 23.3005 0
-2.66228 -9.72604 23.846 0
-2.56152 -8.6539 22.5709 0
-3.01004 -9.01411 22.1131 0
-3.92137 -9.34932 21.9023 0
-3.28613 -10.1366 23.6334 0
-2.86712 -10.0704 24.6453 0
-4.74079 -9.61141 21.6798 0
-4.1269 -9.53128 22.7946 0
-4.18187 -10.3504 23.5841 0
-4.97019 -10.5081 23.5699 0
-4.35954 -10.6218 24.6029 0
-1.718 -13.2565 18.946 0
-2.56753 -11.2255 17.7519 0
1.48804 -14.6979 18.0222 0
0.103781 -13.9529 18.802 0
-0.493865 -13.6756 18.4238 0
0.587821 -13.7116 17.4068 0
-1.46878 -13.59 18.1778 0
3.92819 -16.476 16.9207 0
2.54574 -15.7475 17.3859 0
5.44323 -19.0896 16.6766 0
4.89622 -17.6913 16.3569 0
4.72358 -17.1012 15.5199 0
4.64856 -18.7048 14.5473 0
4.44013 -16.5179 15.102 0
2.21588 -14.3564 16.4797 0
1.56591 -13.9598 16.4604 0
2.56331 -14.9082 16.736 0
3.69844 -15.2242 15.5629 0
3.92368 -16.111 14.6666 0
2.15334 -14.6145 15.3921 0
0.420249 -13.7917 16.5893 0
3.31819 -18.0134 13.9275 0
3.26195 -15.7935 14.2917 0
2.46113 -15.2908 14.0845 0
1.9607 -16.6605 13.3328 0
1.41724 -14.9652 14.6787 0
-5.54143 -10.1031 22.5634 0
-5.68857 -10.5087 23.6016 0
-4.91176 -9.89805 20.3985 0
-5.36932 -9.89457 21.4604 0
-5.87522 -10.0152 21.2514 0
-5.62426 -10.6378 19.92 0
-6.1334 -10.4599 21.0702 0
-3.72358 -9.73197 18.1521 0
-4.38127 -9.67261 19.2564 0
-2.99748 -10.3662 17.4868 0
-3.18471 -11.3614 17.4895 0
-2.67761 -12.6952 17.6691 0
-4.98444 -11.0018 18.6681 0
-4.90895 -11.9753 18.5138 0
-4.74185 -10.36 18.9887 0
-3.84175 -11.5607 17.9936 0
-1.73467 -13.6654 17.5324 0
-2.66585 -13.7886 17.1953 0
-4.53781 -13.2773 17.9041 0
-0.910573 -13.7138 16.8274 0
-0.463825 -14.0908 15.8591 0
0.20735 -15.1179 15.7806 0
-6.12706 -10.9321 23.5106 0
-5.4152 -11.2431 24.5395 0
-6.41586 -11.1423 21.0314 0
-6.25047 -10.8861 22.383 0
-6.43219 -11.5437 23.46 0
-6.42371 -12.4556 23.3782 0
-6.07956 -12.4556 24.4005 0
-4.37728 -14.4566 17.5674 0
-5.80445 -12.8996 19.2243 0
-0.252239 -16.3532 16.3391 0
-1.83396 -15.4406 16.8846 0
-3.67877 -15.7573 18.3666 0
-3.18427 -17.0187 18.9553 0
-4.98043 -16.0966 19.4314 0
-6.1383 -13.1956 22.0978 0
-6.08311 -13.9056 23.0348 0
-6.09917 -12.7856 20.9466 0
-5.7443 -14.5877 20.6209 0
-5.58605 -16.3164 20.4405 0
-5.86934 -15.4823 22.6563 0
-6.02654 -14.6235 23.8362 0
-4.90659 -17.6844 20.6255 0
-5.59556 -16.5081 21.5028 0
-5.64871 -16.8737 22.3542 0
-5.25272 -18.0375 22.1516 0
-5.60817 -17.4079 22.939 0
0.257013 0.206581 34.4334 0
-2.34034 -5.27509 28.7823 0
-0.636428 -4.92236 29.0768 0
-3.9795 -6.85609 27.3051 0
-3.53981 -6.20928 27.9272 0
-1.7108 -5.90693 29.5073 0
-3.2585 -8.3804 26.1194 0
-3.81365 -7.65422 26.5725 0
-2.3068 -9.40651 25.6393 0
-2.76844 -8.91312 25.8779 0
-3.095 -8.77413 26.9486 0
-2.54145 -8.98949 27.8022 0
-3.07441 -8.30911 28.6854 0
-2.49869 -10.3378 25.4622 0
-2.27317 -9.86269 25.5265 0
-4.32745 -10.696 25.636 0
-3.47773 -10.6221 25.5231 0
-2.33465 -10.9645 26.1357 0
-2.33992 -11.4929 26.8256 0
-1.68176 -10.7602 26.8352 0
-1.96115 -9.60057 27.2834 0
-1.99468 -9.44704 28.5591 0
-2.00591 -9.81059 26.3122 0
-1.75719 -10.208 26.9985 0
-1.45595 -10.6312 27.693 0
-1.4991 -10.135 29.1982 0
-1.90249 -9.43339 30.1401 0
-0.969175 -11.2272 28.3694 0
-1.15882 -10.71 28.6791 0
-0.913793 -10.7416 29.8712 0
-5.48859 -11.5413 25.5899 0
-5.07273 -10.9316 25.6853 0
-6.14311 -12.8841 25.4039 0
-5.85878 -12.1916 25.5224 0
-5.48048 -12.1803 26.3951 0
-5.43462 -12.923 27.044 0
-4.94624 -12.3164 27.2065 0
-5.96441 -15.2192 24.4769 0
-6.24426 -13.8136 25.0093 0
-5.61212 -18.1113 23.1879 0
-5.72715 -16.6718 23.9124 0
-5.87018 -16.0238 24.8628 0
-5.81007 -17.1402 24.9545 0
-5.98439 -15.5115 25.8714 0
-5.87128 -13.4623 26.8606 0
-5.49011 -13.5457 27.648 0
-6.2089 -13.4815 26.0578 0
-6.22711 -14.1919 26.5588 0
-6.02914 -15.2278 26.8816 0
-5.79442 -13.9011 28.3421 0
-5.33354 -13.3426 28.5182 0
-5.89239 -16.4203 26.8619 0
-5.91593 -14.9698 27.8336 0
-5.69979 -14.8075 28.8388 0
-5.50568 -15.7317 28.8611 0
-5.37107 -14.8702 29.7836 0
-1.84137 -11.693 28.4617 0
-1.3325 -11.7775 29.4636 0
-1.42394 -13.1834 29.762 0
-2.5502 -13.0235 29.8974 0
-1.53665 -13.826 30.5891 0
-3.49215 -11.6384 27.0262 0
-2.59665 -11.7893 27.6687 0
-4.33446 -11.1107 26.5021 0
-4.34193 -11.7727 27.2377 0
-4.34219 -12.5564 27.9194 0
-3.35079 -12.2956 29.4194 0
-3.40198 -13.0281 30.2048 0
-3.03699 -11.9159 28.6273 0
-4.03021 -12.1649 28.7075 0
-4.74079 -12.7267 28.6376 0
-4.26536 -13.3135 30.2214 0
-3.33909 -13.9916 30.7819 0
-5.01005 -13.2065 29.3174 0
-5.022 -14.0318 29.9549 0
-4.81016 -14.9128 30.4589 0
-3.18778 -14.9557 31.2823 0
-2.41861 -14.7232 31.2973 0
-3.81784 -15.5212 30.3789 0
-3.67005 -15.1415 31.0292 0
-2.9889 -15.7864 31.732 0
-2.79388 -16.7716 31.9662 0
-2.36829 -16.613 32.7104 0
-2.33767 -7.14863 29.7667 0
-3.61618 -7.43246 28.2075 0
-3.11303 -7.91135 29.2682 0
-3.96276 -30.5313 22.6195 0
-0.384976 -26.7027 27.201 0
-0.298705 -25.5186 27.0839 0
0.697414 -26.515 26.7209 0
-1.49032 -29.0184 23.9308 0
-3.22582 -28.8522 22.7558 0
-0.147477 -29.2175 25.523 0
0.637567 -27.8181 25.911 0
0.80643 -26.5002 25.7266 0
-2.29929 -27.484 22.9096 0
-5.03367 -28.8541 22.8849 0
0.123593 -25.5165 25.1758 0
-0.0427154 -26.5934 24.2309 0
-1.09789 -26.3482 23.0975 0
-0.406928 -25.2931 22.7795 0
-2.73135 -25.9971 23.0097 0
-2.54933 -21.2597 29.2778 0
-2.5573 -20.196 29.4918 0
-2.3763 -21.6745 28.5351 0
-2.68778 -19.2589 30.5289 0
-3.26835 -19.0825 29.6306 0
-2.05429 -18.6809 31.4594 0
-2.51343 -17.7456 31.9043 0
-3.72611 -17.7838 29.8944 0
-3.71179 -19.217 28.5474 0
-3.15601 -16.9682 30.9715 0
-3.53979 -16.491 30.048 0
-4.196 -16.4692 29.2776 0
-0.229538 -24.3973 23.7086 0
-0.0876887 -24.1948 22.5949 0
-0.932518 -24.5806 25.584 0
-0.831769 -24.7568 24.5873 0
-1.82602 -24.089 24.0256 0
-2.82446 -22.8711 24.5779 0
-2.64459 -23.1358 23.7117 0
-1.69845 -24.4285 27.2497 0
-1.17067 -24.5693 26.5762 0
-2.425 -24.2468 27.6034 0
-2.36663 -23.2994 27.7958 0
-2.72143 -22.1527 27.7854 0
-3.09905 -22.657 25.5973 0
-3.88625 -21.6456 25.5119 0
-2.10524 -23.5588 26.0363 0
-3.14253 -22.4146 26.9289 0
-3.60258 -20.9148 27.7947 0
-4.68112 -20.2229 26.5341 0
-4.47008 -20.3729 25.6096 0
-4.25924 -19.646 27.5319 0
-4.80483 -18.1784 27.9397 0
-4.93258 -16.8222 28.411 0
0.18614 -23.0243 22.7358 0
-0.354062 -23.9063 21.9603 0
-3.43393 -22.0143 23.7629 0
-1.61812 -22.7074 23.2446 0
-0.400245 -22.1288 22.6809 0
-1.80433 -21.5348 22.5163 0
0.582044 -21.7227 21.7838 0
-4.85298 -18.9256 25.9247 0
-4.54229 -20.7322 24.7291 0
-5.116 -17.1246 27.4159 0
-5.3886 -17.5741 26.4607 0
-5.58715 -18.0301 25.5473 0
-3.75077 -20.9324 23.2388 0
-3.22144 -20.9434 22.5362 0
-4.47702 -21.0531 23.8843 0
-5.13229 -19.7812 24.1937 0
-5.58194 -18.3922 24.7026 0
-4.46251 -19.9308 22.9304 0
-2.70529 -20.7323 21.975 0
-5.53855 -18.714 23.8847 0
-5.54164 -19.105 23.0933 0
-4.87293 -19.0916 22.5742 0
-6.50372 -28.9156 23.1569 0
-7.54511 -30.8847 22.7319 0
-4.52104 -25.7463 23.108 0
-5.54005 -27.302 23.2688 0
-7.60702 -29.1339 22.1304 0
-7.70195 -29.4102 19.9874 0
-8.4272 -31.1858 18.0358 0
-11.3192 -32.8653 15.2903 0
-10.8784 -33.5197 14.0698 0
-9.76979 -33.6748 13.4334 0
-1.08069 -23.691 21.8617 0
-2.7969 -24.5036 22.6555 0
0.849414 -21.7838 20.947 0
0.203364 -22.8416 21.1887 0
-2.17236 -23.1861 21.8806 0
-3.21972 -22.5893 21.7942 0
-5.31 -24.0099 22.0649 0
-2.27644 -20.5795 21.4488 0
-0.225811 -21.0002 21.1766 0
-4.44639 -18.871 22.128 0
-3.59294 -19.8729 21.8522 0
-1.68568 -20.255 20.9993 0
-1.39351 -20.1734 20.5826 0
-0.0385164 -20.9941 19.951 0
-1.35008 -22.2689 20.5928 0
-4.22791 -22.158 21.4374 0
0.566195 -21.7874 20.3134 0
0.0698712 -21.7913 19.7534 0
-0.683609 -21.515 19.5611 0
-4.82196 -22.0634 20.6936 0
-6.34982 -24.2171 20.055 0
-1.59578 -21.2225 19.4251 0
-2.783 -21.3372 20.1014 0
-5.24033 -22.1284 19.7231 0
-5.4199 -21.7089 18.9595 0
-6.82424 -23.9124 18.081 0
-10.0182 -31.4993 13.7547 0
-8.96946 -33.4384 12.8461 0
-9.1189 -31.8964 11.6682 0
-7.46206 -27.6146 20.8621 0
-7.52337 -29.6572 17.8343 0
-5.83593 -25.6673 22.7109 0
-6.52814 -25.9108 21.5192 0
-6.83002 -26.1899 20.1768 0
-8.12429 -29.5715 14.4595 0
-8.36883 -29.5001 13.2529 0
-7.76191 -29.6487 16.0037 0
-6.90688 -27.997 17.7736 0
-6.81931 -26.3098 18.8744 0
-6.95226 -27.547 15.3992 0
-6.98085 -26.0479 17.8437 0
-6.88344 -25.8455 16.8238 0
-6.93913 -25.5751 15.9213 0
-6.96323 -25.2433 15.0875 0
-4.06086 -20.5575 18.7912 0
-5.57509 -21.6137 17.8633 0
-0.799629 -20.6626 19.3212 0
-2.1285 -21.1055 18.8152 0
-2.59762 -20.5267 18.0769 0
-1.67411 -20.1292 17.6112 0
-3.15642 -19.8009 17.2277 0
-2.76913 -19.5809 20.7927 0
-0.826538 -19.8506 20.2141 0
-4.30277 -18.8195 21.5179 0
-4.15739 -18.9621 20.7158 0
-3.50699 -18.7397 20.0359 0
-0.984515 -19.7875 18.4786 0
-1.33598 -19.286 17.169 0
-0.668065 -19.7976 19.5051 0
-1.53312 -19.0805 19.4247 0
-2.61254 -18.3031 19.3184 0
-1.09572 -18.2588 16.7452 0
-1.62292 -19.3203 15.1862 0
-1.85307 -17.7991 18.0733 0
-0.906532 -17.1421 16.5009 0
-0.392761 -17.5012 13.9091 0
-2.67346 -23.6074 14.8825 0
-2.38669 -24.5229 15.603 0
-6.09638 -21.1889 15.743 0
-5.80344 -21.68 16.5974 0
-4.79808 -20.1001 16.5465 0
-3.56503 -19.7456 16.1743 0
-3.02179 -22.1768 14.7154 0
-1.70625 -22.7683 14.2905 0
-4.12843 -21.146 14.1789 0
-3.63843 -20.263 14.9354 0
-2.62922 -20.121 15.278 0
-0.927142 -21.2794 13.4017 0
-0.236737 -22.1884 13.7625 0
-1.62891 -20.1437 13.8958 0
-0.597342 -19.7277 12.69 0
0.701333 -18.6969 13.215 0
-0.981175 -24.7618 14.5558 0
0.715622 -26.0556 15.3849 0
1.26557 -21.3294 12.8354 0
0.297479 -23.2753 13.612 0
1.75002 -19.4349 13.2167 0
2.60942 -19.7746 13.362 0
3.42609 -20.1309 13.3076 0
1.72279 -24.4397 14.0843 0
2.63296 -24.6952 14.5793 0
0.917579 -23.9976 13.7645 0
2.86044 -22.3659 13.2033 0
3.98262 -20.3489 13.8422 0
3.994 -22.8086 14.7816 0
3.57814 -24.7501 15.3649 0
4.38878 -20.5604 14.6911 0
4.82021 -20.8287 15.6447 0
5.44086 -21.1313 16.5914 0
2.67271 -26.4831 16.1115 0
4.43924 -24.5297 16.5629 0
5.60017 -22.7121 17.0724 0
1.47551 1.83857 33.6868 0
2.1602 2.94841 33.3982 0
2.99043 3.51231 33.447 0
3.48232 3.36726 33.9324 0
0.862467 3.23344 31.7041 0
1.61623 4.92133 31.7151 0
2.00503 4.49343 32.0646 0
2.73572 3.7824 32.8993 0
3.72275 4.01718 33.4537 0
2.33377 4.09799 32.4515 0
2.88524 4.68227 32.625 0
4.19892 4.21994 33.2124 0
3.199 4.83136 32.4572 0
3.74807 4.49239 32.7713 0
4.58911 4.34292 32.8318 0
4.58501 4.27048 32.1003 0
4.94795 4.04283 32.3722 0
1.10419 5.90291 30.1533 0
2.58243 6.31051 29.3433 0
3.02314 6.66525 27.6262 0
3.30312 6.41445 29.3299 0
4.03389 6.48796 29.2803 0
3.84631 6.34843 30.049 0
4.13872 4.59291 31.9068 0
4.53333 4.24425 31.4554 0
2.75604 5.21022 32.0804 0
3.53035 4.973 32.2856 0
3.70235 4.93858 31.7313 0
3.40138 5.27076 31.4231 0
3.90961 4.86794 31.1336 0
1.36381 5.38603 31.302 0
2.06137 5.46005 31.8652 0
1.19466 5.64028 30.7858 0
1.7309 5.94609 30.8464 0
2.94297 5.6624 31.5699 0
3.30822 5.61178 31.1245 0
2.48377 5.5711 31.7301 0
2.32245 5.83874 31.2634 0
2.3797 6.05195 30.7648 0
3.37185 5.91135 30.8449 0
3.75887 5.58643 30.7924 0
2.9963 6.10466 30.619 0
3.55377 6.11332 30.4381 0
4.12387 6.12204 30.225 0
3.78289 4.27788 30.9421 0
3.99255 4.0018 31.167 0
3.48009 4.88613 30.5686 0
3.66466 4.55653 30.7024 0
3.20378 4.28932 30.3986 0
2.47747 4.23632 29.8682 0
2.47774 3.96096 30.1389 0
3.63921 5.631 30.2768 0
3.57852 5.26491 30.4331 0
4.37574 5.96639 29.7614 0
4.11313 5.74342 30.1415 0
3.86993 5.46276 29.8429 0
3.89076 5.28493 29.3226 0
3.3594 5.18758 29.4021 0
2.72144 4.45909 29.56 0
1.96816 4.08947 29.2789 0
3.27704 4.95218 30.0392 0
2.92592 4.88523 29.4685 0
2.65422 4.7015 28.8805 0
1.53836 4.01432 28.6139 0
1.20993 3.87093 28.9551 0
2.51111 4.53381 28.3136 0
2.00037 4.16641 28.3713 0
1.23921 3.99728 27.95 0
1.16506 3.91232 27.4036 0
0.572769 3.75557 27.5399 0
4.18179 6.6498 19.7443 0
5.66089 7.21721 21.604 0
6.15929 7.97284 22.5253 0
4.53467 6.29288 19.6961 0
5.04851 6.48848 20.6821 0
6.02848 6.74789 21.5391 0
6.40993 6.41609 21.6346 0
7.03985 7.23319 22.5837 0
4.32319 7.51195 17.0768 0
4.82904 7.21787 17.4185 0
5.25647 6.01497 18.5201 0
5.90561 5.86051 20.6184 0
6.83295 6.17447 21.8412 0
5.00415 5.98077 19.5214 0
5.50205 5.69551 19.4243 0
5.80669 5.28224 19.7769 0
7.2411 5.8906 22.0938 0
7.84326 6.70883 23.0157 0
6.1282 4.87952 20.0842 0
6.65278 5.26865 21.1349 0
7.33356 5.22987 22.4021 0
7.33072 4.46784 22.6573 0
8.25575 5.74164 23.618 0
1.86424 4.05158 27.2965 0
1.41726 3.47069 26.8379 0
3.14327 4.9469 28.2255 0
2.52597 4.43247 27.8245 0
2.70284 4.1666 27.4332 0
3.53068 4.53277 27.4272 0
2.94912 3.9197 27.0155 0
4.45011 5.60584 29.1043 0
3.86036 5.30302 28.6974 0
4.68311 6.20029 29.3174 0
4.66808 5.8405 29.3028 0
4.74332 5.89088 28.7171 0
5.39835 5.98982 28.6814 0
5.06688 5.71622 28.4644 0
4.14205 5.24714 27.7118 0
4.467 5.17384 27.3279 0
3.92773 5.41392 28.1152 0
4.70702 5.6165 28.1154 0
5.46805 5.49114 28.2611 0
5.37059 5.26646 27.4247 0
4.89303 5.09701 26.9848 0
6.31592 5.97112 28.2156 0
5.88732 5.37865 27.9039 0
6.38545 5.44487 27.496 0
7.41589 6.44901 27.3839 0
7.01308 5.865 26.9821 0
4.22531 6.66376 28.4851 0
4.53403 6.45995 29.0128 0
3.35719 6.78707 26.6268 0
3.7828 6.82517 27.6226 0
4.58836 6.9274 27.6143 0
5.40924 7.0549 27.5345 0
4.59118 7.37826 25.4344 0
5.47346 7.61384 25.1483 0
5.75112 8.45777 23.9763 0
6.41721 7.94441 24.8195 0
6.47595 9.58456 22.8146 0
7.73915 6.99451 27.5569 0
8.14923 7.44049 27.6702 0
6.69265 6.62259 28.334 0
7.26699 6.8139 28.0578 0
7.94544 7.44702 27.6519 0
8.09696 7.89979 27.2425 0
8.45668 8.34428 27.254 0
5.66877 6.56029 28.7054 0
6.10604 6.48459 28.4742 0
4.99354 6.43245 28.742 0
5.62598 6.85327 28.3871 0
6.26096 7.23845 27.491 0
7.58343 7.5675 27.2253 0
7.9919 8.11833 25.9991 0
6.91249 7.03127 27.9878 0
7.08654 7.43141 27.3894 0
6.78742 7.499 25.9652 0
7.64267 8.308 24.8182 0
8.17142 8.5467 25.026 0
7.09176 8.15398 24.7628 0
7.19887 9.18971 23.7607 0
6.72446 8.86132 23.1764 0
8.65512 8.3015 28.1472 0
8.60841 7.70629 27.8446 0
9.0163 8.77267 26.3616 0
8.89198 8.58962 27.5804 0
9.34796 8.76992 27.8819 0
10.1438 8.84438 26.4806 0
9.83444 8.82926 27.8755 0
8.02777 8.71594 24.2425 0
8.69785 8.79827 25.2336 0
7.06784 8.30039 23.3079 0
7.64851 8.11538 23.3869 0
8.14071 7.92881 23.5449 0
9.7713 8.71074 25.4688 0
10.0839 8.48518 25.7415 0
9.30289 8.78013 25.2986 0
9.22615 8.56726 24.5183 0
8.53196 7.65367 23.796 0
9.83307 7.97054 25.1091 0
10.3633 8.32324 26.1566 0
8.85039 7.31771 24.1217 0
9.14649 6.9418 24.4497 0
9.3048 6.41744 24.8204 0
1.6538 3.217 26.2937 0
1.07446 2.85906 26.3872 0
3.28012 3.83538 26.6754 0
2.36452 3.56501 26.3253 0
1.84618 3.10754 25.6799 0
2.1231 3.11393 25.0519 0
1.37806 2.83129 24.8948 0
5.45596 4.7536 26.8046 0
4.23111 4.50638 26.6242 0
7.71954 6.28174 26.6418 0
6.61777 5.3183 26.6365 0
6.16234 4.79248 26.349 0
6.81849 4.94371 26.2551 0
5.61878 4.01068 26.3791 0
3.0721 3.37154 25.4963 0
2.56829 3.02987 24.5126 0
3.63416 3.80219 26.3099 0
4.19083 3.59981 26.0099 0
4.87802 3.35729 25.8225 0
2.99016 2.71961 24.2138 0
2.07191 2.76332 23.4583 0
5.27585 2.91994 26.2723 0
4.07162 2.63482 25.2052 0
3.38522 2.21175 24.4375 0
3.96466 1.53898 25.3087 0
3.17673 1.78648 23.6795 0
8.85453 7.95057 28.6717 0
8.64492 7.02475 27.2472 0
10.2272 8.77369 28.0602 0
9.52526 8.56908 28.7626 0
9.30538 8.04023 29.1303 0
9.86556 7.96088 29.4028 0
9.38443 7.23221 28.9261 0
10.6779 7.92913 26.5892 0
10.7461 8.61316 27.2357 0
9.38666 5.87969 25.2593 0
10.3584 7.05971 25.8867 0
11.0396 7.49644 26.9646 0
11.2691 6.91645 27.5692 0
11.5168 7.80526 28.0614 0
10.5272 8.48795 29.3311 0
10.3944 7.8661 29.7812 0
10.6141 8.61542 28.3861 0
11.0266 8.28657 28.7948 0
11.3725 7.93263 29.3032 0
10.8074 7.68923 30.3064 0
10.286 7.10144 30.1545 0
11.5909 7.34664 29.9031 0
11.2248 7.92589 30.3345 0
11.0572 7.31758 30.8173 0
11.4282 6.80783 31.2894 0
10.8225 6.63654 31.3015 0
5.30338 1.8146 26.5033 0
4.75261 1.26501 26.0151 0
6.96844 3.66389 26.7731 0
6.09527 2.66981 26.5559 0
6.78206 2.57055 27.1639 0
8.08251 3.33035 28.0033 0
7.28677 2.48873 27.8539 0
8.19495 5.59375 26.7976 0
7.7272 4.7034 26.8762 0
8.46837 6.35511 26.8899 0
9.10359 6.32241 27.6909 0
9.59905 6.23181 28.502 0
9.07154 4.22847 28.0965 0
9.48549 3.8982 28.7456 0
8.4395 4.44292 27.403 0
9.44198 5.20962 28.2741 0
10.0627 6.04567 29.2475 0
10.1364 4.79298 29.7054 0
9.73314 3.68957 29.4338 0
10.4262 5.95561 29.9125 0
10.5411 5.87205 30.6175 0
10.708 5.63115 31.2286 0
5.53659 1.07615 26.4411 0
4.33206 0.771844 25.0502 0
7.79467 2.25899 28.4826 0
6.68932 1.68983 27.4762 0
6.13501 0.906677 26.9909 0
6.51933 0.618616 27.6133 0
5.66689 0.296695 26.0329 0
9.85486 3.58199 30.1658 0
8.96074 2.80238 29.2614 0
10.9036 5.51182 31.9106 0
10.4703 4.62869 31.1758 0
10.009 3.48612 30.9078 0
10.1233 3.46228 31.6221 0
9.44815 2.47993 30.5888 0
7.55728 1.1923 28.6483 0
6.83883 0.295209 28.1757 0
8.23534 2.00574 29.08 0
8.51921 1.72569 29.6519 0
8.76516 1.49985 30.281 0
7.27002 0.0752016 28.6288 0
6.58406 -0.248157 27.1899 0
9.09928 1.37394 30.8568 0
8.25864 0.570067 29.7439 0
7.7467 -0.127242 29.0665 0
8.39017 -0.422534 29.3949 0
7.58915 -0.781065 28.1649 0
9.12597 0.0893459 30.6099 0
8.96089 -0.639018 29.6638 0
9.8833 2.29767 31.8628 0
9.36667 1.20928 31.3786 0
9.84279 1.02165 31.6178 0
10.4384 1.6122 32.6393 0
10.2476 0.60338 31.8803 0
10.7237 4.35031 32.5019 0
10.2318 3.28051 32.2722 0
11.5832 6.11924 32.2924 0
11.2567 5.43461 32.5441 0
11.4185 4.98904 33.0964 0
11.978 4.88403 33.2726 0
11.5748 4.32144 33.6552 0
10.4144 2.52345 33.4437 0
10.6549 1.83921 33.67 0
10.3713 3.01669 32.8097 0
10.8505 3.44087 33.7256 0
11.4068 3.54544 34.4169 0
11.0043 1.82053 34.4267 0
10.7888 1.0275 33.8144 0
11.8186 3.08716 34.5981 0
11.3972 2.62446 34.8865 0
11.5403 1.56042 34.9545 0
12.0349 6.69276 31.279 0
11.8604 6.46346 31.8098 0
11.9334 6.57402 29.4094 0
11.9984 6.65679 30.4159 0
12.2506 6.04912 31.1289 0
12.3144 5.08232 30.8507 0
12.4061 5.21709 31.6665 0
10.8677 5.90462 27.0195 0
11.503 6.25604 28.273 0
8.81406 4.87231 24.2416 0
9.74168 5.33653 25.7551 0
10.2903 4.78277 26.3886 0
9.94657 3.71301 25.4537 0
10.8837 4.06834 27.1594 0
11.9707 4.75819 29.8186 0
12.1098 3.78655 30.474 0
11.8348 5.57489 29.0357 0
11.5567 4.41271 28.5641 0
11.2303 3.19916 27.9933 0
11.9514 2.5216 30.1563 0
12.3407 2.81862 31.2041 0
11.0412 2.12553 27.2345 0
11.4524 2.21212 28.9202 0
11.7754 1.21851 29.8347 0
11.8717 0.0309566 29.3018 0
12.0917 0.433165 30.6529 0
12.1322 1.52561 35.1638 0
12.2011 3.38632 34.1292 0
12.1977 2.44692 34.69 0
12.3633 1.72972 34.7119 0
12.5324 1.8219 34.1963 0
12.5944 1.1847 34.8262 0
12.2325 5.25998 32.922 0
12.2236 4.37112 33.5181 0
12.0901 5.93467 32.3817 0
12.3767 5.29625 32.3648 0
12.4838 4.23234 32.1936 0
12.4067 2.51389 33.6192 0
12.4047 1.49708 33.4166 0
12.2819 3.42352 33.595 0
12.4041 3.35374 32.9401 0
12.4046 3.11245 32.135 0
12.2551 1.10402 32.5716 0
12.9331 0.743358 33.013 0
12.2951 1.8969 31.9434 0
12.1782 0.785795 31.6524 0
12.4251 -0.0504866 31.3291 0
12.6598 -0.915928 30.7894 0
12.9 -0.428137 31.9276 0
6.92628 4.12865 21.4624 0
7.82604 4.22828 22.8397 0
5.99322 4.8786 18.6061 0
6.4067 4.41095 20.099 0
6.70203 3.88947 20.179 0
6.73633 3.5455 18.9576 0
7.42053 3.24022 20.493 0
5.77405 6.22429 17.5781 0
7.21062 9.8681 17.163 0
6.85407 8.21122 16.5348 0
6.45706 4.90006 17.4041 0
7.12744 3.95129 17.8973 0
6.10837 5.57998 17.3849 0
6.54067 6.48619 16.6922 0
6.88098 6.57069 16.4345 0
7.6091 4.13602 17.3076 0
8.08174 2.77974 18.5789 0
7.28808 6.60564 16.4427 0
7.22653 5.25603 16.5791 0
8.0704 4.22493 16.8981 0
8.45146 4.29423 16.6446 0
8.91288 2.28216 18.3509 0
8.40966 5.94321 16.5355 0
8.84704 4.31113 16.8895 0
7.92722 7.02671 16.5228 0
8.98444 9.17631 17.6279 0
9.08689 7.68167 17.0848 0
9.23637 4.30008 17.0418 0
9.63474 1.94315 18.1973 0
9.57572 7.83846 17.3832 0
9.3154 6.23907 17.0272 0
9.60507 4.14939 17.2571 0
9.96082 3.95169 17.5953 0
10.4628 1.77616 17.8435 0
9.93147 6.02572 17.6631 0
10.2148 3.71028 17.4226 0
12.4252 -1.10263 29.5509 0
13.0147 -1.434 30.238 0
13.4374 -1.16081 28.3392 0
11.6921 0.0271674 27.5106 0
11.893 -0.862179 28.6922 0
10.6806 2.04671 25.312 0
11.2827 1.1199 26.2662 0
11.3629 0.279266 25.4808 0
11.1488 0.738318 23.6132 0
11.5503 -0.143873 24.8814 0
9.11611 3.3862 23.6815 0
9.87591 2.70529 24.4519 0
8.52593 4.0548 23.1208 0
8.39693 3.25643 21.96 0
8.5 2.50158 20.7518 0
10.3297 1.06953 22.6093 0
10.5376 0.637967 22.0978 0
10.1364 1.81886 23.4038 0
9.48593 1.71652 21.6727 0
8.73285 1.84475 19.913 0
9.97128 0.666702 20.7687 0
10.7421 0.298573 21.6972 0
9.10922 1.58564 19.7867 0
9.40609 1.17341 19.5445 0
9.79025 1.02459 19.4944 0
13.0117 -0.446046 23.3499 0
12.6079 -1.00008 27.4541 0
13.2028 -1.3017 26.8395 0
12.2936 -0.839797 28.0536 0
12.031 -0.881356 26.2166 0
11.7885 -0.513509 24.3813 0
12.6002 -0.612769 23.6282 0
12.3238 -0.421625 22.1931 0
12.8647 -1.05846 25.2308 0
12.0738 -0.922481 23.9695 0
11.6295 -0.0807771 22.759 0
11.5106 -0.0479498 21.1565 0
11.951 -0.039997 20.9942 0
11.083 -0.099783 21.3894 0
10.633 0.370328 20.2181 0
10.2183 1.06438 19.2843 0
13.1027 -0.241122 21.7197 0
11.5197 0.39978 19.8941 0
12.3419 -0.103094 20.804 0
10.6497 1.09147 19.0983 0
11.0165 0.839815 18.8367 0
11.3584 0.520991 18.5332 0
13.0016 -0.158403 20.2367 0
9.51852 -0.936617 29.9054 0
8.86313 -1.41263 28.7751 0
10.6073 0.047856 32.0253 0
10.0638 -0.455579 31.0143 0
9.94867 -1.35675 30.1117 0
10.3664 -1.92902 30.2326 0
9.86024 -2.20089 29.2042 0
11.0909 0.187915 33.9295 0
10.8575 0.202829 32.9864 0
10.8327 -1.67761 31.1959 0
10.7958 -2.58784 30.3102 0
10.8381 -0.720975 32.1266 0
11.0587 -1.58746 32.1501 0
4.87666 3.64364 31.9895 0
3.31434 3.60745 30.9815 0
4.10906 3.58918 31.4554 0
1.67855 3.53272 29.9989 0
2.45008 3.60615 30.5157 0
2.47408 3.14656 30.8403 0
1.77903 2.60444 30.604 0
2.6367 2.58662 31.0548 0
0.589579 3.35365 28.5738 0
1.06742 3.41675 29.3154 0
0.257545 3.073 27.1598 0
0.314831 3.26893 27.8562 0
0.168083 2.79265 28.2106 0
-0.0696061 2.38642 27.834 0
0.069656 2.48913 28.622 0
0.969769 2.64532 30.1041 0
1.12407 2.0893 30.3099 0
1.01186 3.04501 29.6865 0
0.352459 2.56346 29.4193 0
-0.0162456 2.13958 29.0816 0
0.461602 1.59597 30.0738 0
1.31482 1.50755 30.5363 0
-0.0791593 1.62103 28.5981 0
0.0870573 1.66055 29.4143 0
0.296403 1.08296 29.6327 0
0.195619 0.69065 29.1988 0
0.477363 0.629142 29.9253 0
3.46342 2.67948 31.5955 0
2.75039 2.11635 31.3332 0
2.80588 1.65902 31.715 0
2.00767 1.56466 31.1835 0
1.34301 1.05228 30.9432 0
0.761892 0.586181 30.788 0
0.61116 0.208402 30.4068 0
0.727859 -0.238454 29.7755 0
0.911618 -0.252295 30.7658 0
0.768205 2.46014 25.7394 0
0.509121 2.61975 26.5704 0
1.1223 2.43409 24.0992 0
0.922189 2.41414 24.9214 0
0.472145 2.07861 25.0008 0
0.501813 1.49039 24.333 0
0.0922499 1.7408 25.1588 0
1.90213 2.379 22.6295 0
1.47207 2.45242 23.2729 0
3.05019 1.38782 22.8198 0
2.435 1.98719 22.4951 0
1.73563 1.89746 21.9187 0
1.6526 1.54414 21.0988 0
1.01128 1.56943 21.7611 0
0.832266 1.37726 23.5048 0
0.510096 0.873868 23.6703 0
1.06425 1.97992 23.3401 0
0.875279 1.48117 22.6125 0
0.544172 1.10784 21.8142 0
0.186587 0.589302 22.8886 0
0.0770716 0.482578 23.8345 0
0.423568 0.698821 21.0662 0
0.250054 0.6983 21.9324 0
-0.145 0.364792 22.1548 0
-0.688072 0.20019 21.5378 0
-0.56212 0.0660951 22.4374 0
4.30389 0.422421 23.819 0
3.61286 0.823989 23.3638 0
5.41036 -0.225171 24.9368 0
4.92172 0.0673532 24.3341 0
4.26502 0.0488334 22.7383 0
4.22621 -0.383662 21.8402 0
3.68248 0.144313 21.376 0
6.59271 -0.619054 26.0023 0
6.02806 -0.422957 25.4371 0
7.80197 -1.27068 27.0492 0
7.19013 -0.935273 26.5426 0
6.84998 -1.05457 24.881 0
7.04454 -1.48025 23.9505 0
6.37354 -1.17309 23.3177 0
4.75977 -0.84741 22.3227 0
4.08394 -0.872764 21.1446 0
5.6212 -0.554621 23.635 0
5.58731 -0.99651 22.7831 0
5.66208 -1.35801 22.034 0
4.12372 -1.28581 20.42 0
3.41242 -0.845867 20.0915 0
5.59991 -1.77635 21.5002 0
4.83651 -1.656 20.833 0
4.09555 -1.6981 19.8759 0
3.98545 -2.00152 19.5792 0
3.30547 -1.68904 19.1152 0
-0.607895 0.266913 20.668 0
-1.16677 -0.0808794 21.1086 0
0.902145 0.74426 20.1917 0
0.100906 0.425341 20.3651 0
-0.278076 0.315876 19.8431 0
0.346023 0.268802 19.1494 0
-0.577126 0.0217848 19.5363 0
2.37988 1.27927 20.8952 0
1.78766 1.27401 20.1374 0
3.01732 1.13244 21.8968 0
3.03237 0.792209 21.0139 0
3.01634 0.395505 20.1353 0
1.3172 0.467543 18.9687 0
1.07246 -0.203312 18.9107 0
1.54362 0.940897 19.445 0
2.20528 0.487051 19.3327 0
2.84805 -0.181332 19.6613 0
1.81373 -0.730308 18.9447 0
0.929791 -0.765493 18.8378 0
2.69261 -0.715291 19.2752 0
2.56751 -1.21745 19.0179 0
2.43724 -1.6967 18.9262 0
-1.60272 -0.380859 20.9549 0
-1.54354 -0.590834 21.5472 0
-0.783801 -0.742295 19.5904 0
-1.38179 -0.392271 20.302 0
-2.07861 -0.779457 20.895 0
-2.38979 -1.35571 20.9396 0
-2.62414 -1.22924 21.3348 0
0.764867 -1.33833 18.9681 0
-0.0155419 -1.04482 19.1586 0
2.29764 -2.12124 18.9113 0
1.55695 -1.74578 18.9038 0
0.509961 -1.8541 19.1067 0
0.212081 -2.33675 19.3323 0
-0.66769 -2.09544 19.5047 0
-2.05702 -1.57029 20.466 0
-2.85014 -1.76564 20.7931 0
-1.13404 -1.38666 19.6984 0
-1.4904 -1.86265 19.8191 0
-1.77435 -2.30686 19.7562 0
-3.26933 -2.20428 20.5523 0
-3.59665 -2.03157 21.0899 0
-2.02105 -2.77379 19.7609 0
-2.72702 -2.48124 20.0536 0
-3.50394 -2.74982 20.5457 0
-3.64788 -3.38686 20.7459 0
-4.28344 -3.19446 20.9152 0
1.87573 -1.96822 29.3609 0
1.76198 -2.68128 28.7136 0
1.09192 -2.65014 27.8479 0
1.35095 -2.95339 28.0129 0
1.3552 -1.18088 29.068 0
1.6476 -1.56339 29.2286 0
0.82086 -0.27282 28.6151 0
1.19934 -0.759431 28.85 0
1.12331 -1.17806 28.0451 0
0.521391 -1.1839 27.1963 0
0.622908 -1.58226 27.4136 0
0.910995 -2.28114 27.7135 0
0.316573 -2.50663 27.1971 0
1.34818 -1.96984 28.4016 0
0.747262 -1.91504 27.5627 0
0.0877266 -1.83156 26.8176 0
-0.637402 -2.31532 26.6512 0
-0.468792 -2.6717 26.8303 0
-0.792943 -1.65265 26.1784 0
-0.678042 -1.97014 26.3893 0
-1.5206 -2.18498 26.0022 0
-2.35735 -2.17963 25.4081 0
-2.30492 -2.51672 25.6866 0
0.429981 0.581769 28.1347 0
0.661337 0.107554 28.364 0
-0.0316313 1.51536 27.5937 0
0.0999975 1.04692 27.9009 0
0.624093 0.448302 27.0509 0
0.295753 0.401588 26.1453 0
0.486734 -0.0613365 26.4106 0
-0.126159 2.18508 26.9967 0
-0.173973 1.92349 27.2864 0
-0.00936519 2.44318 26.7146 0
-0.146746 1.95318 26.0301 0
-0.208519 1.37645 25.3384 0
0.111672 0.760705 25.8702 0
-0.0465663 0.303477 25.2737 0
0.0424912 1.33876 26.5425 0
-0.010128 1.02126 25.595 0
-0.146729 0.668908 24.695 0
-0.256918 0.107774 24.3544 0
-0.365252 -0.113163 24.6711 0
-0.250745 0.195908 24.0571 0
-0.516171 0.00222975 23.3824 0
-0.916865 -0.322114 22.7763 0
-2.33095 -1.81705 25.0723 0
-3.07541 -2.20264 24.7259 0
-0.646705 -1.48293 25.8384 0
-1.45134 -1.61122 25.3787 0
-2.21322 -1.56958 24.7177 0
-1.89704 -1.44782 24.3209 0
-2.86168 -1.5765 23.9983 0
0.591767 -0.870459 26.944 0
0.0583849 -1.25151 26.344 0
1.01142 -0.392952 27.5693 0
0.556075 -0.502069 26.6769 0
0.130834 -0.549414 25.8097 0
-1.08785 -1.23844 24.684 0
-1.58074 -1.2719 23.9309 0
-0.536605 -1.23327 25.5432 0
-0.409234 -0.943704 25.2486 0
-0.353375 -0.567195 24.9517 0
-1.40441 -0.989514 23.5598 0
-2.06964 -1.31455 23.1525 0
-0.832201 -0.6001 24.0458 0
-1.1182 -0.676494 23.1356 0
-1.41905 -0.710308 22.2609 0
-3.59948 -2.32556 24.0679 0
-3.58011 -2.66471 24.4425 0
-3.09969 -1.81351 23.3324 0
-3.43644 -2.02512 23.715 0
-3.94788 -2.53264 23.4028 0
-4.15959 -2.81632 22.7327 0
-4.511 -2.98091 23.1126 0
-2.3965 -1.27209 22.441 0
-2.71689 -1.646 22.8947 0
-2.03662 -0.989588 21.9596 0
-2.6983 -1.1942 21.7944 0
-3.24465 -1.54537 21.6649 0
-3.8539 -2.51679 22.3949 0
-4.3709 -3.07982 22.0972 0
-3.33242 -2.00506 22.6749 0
-3.54736 -1.97503 22.1103 0
-3.73352 -1.93466 21.5689 0
-4.47006 -3.069 21.6565 0
-4.81041 -3.34123 21.8763 0
-4.13749 -2.49652 21.3958 0
-4.55672 -3.05338 21.2402 0
-4.73096 -3.6253 21.0628 0
0.687553 -3.1134 27.6249 0
1.59895 -3.05746 28.3679 0
1.14915 -3.31184 28.4534 0
-1.30321 -2.8596 26.5343 0
-0.28219 -3.01237 27.0465 0
-3.04224 -2.84189 25.4351 0
-2.29824 -2.80622 26.0387 0
-2.1358 -3.12864 26.3038 0
-2.89638 -3.34935 26.2229 0
-1.90689 -3.42931 26.6683 0
0.137158 -3.35548 27.7924 0
0.373063 -3.46421 28.2807 0
-0.0818089 -3.25145 27.3281 0
-0.880424 -3.43203 27.1507 0
-1.67765 -3.66321 27.0847 0
-0.366411 -3.70402 28.0986 0
0.901619 -3.5847 28.6057 0
-2.41566 -3.91426 26.9756 0
-1.36492 -3.84774 27.5135 0
-0.999834 -4.08094 27.8889 0
-1.63169 -4.39867 27.6716 0
-0.590783 -4.14985 28.4248 0
-4.09727 -3.07353 24.1916 0
-3.55556 -2.97049 24.8508 0
-5.0552 -3.35876 22.8344 0
-4.72929 -3.17315 23.4993 0
-4.62568 -3.46971 23.898 0
-4.93383 -3.92707 23.6224 0
-4.45647 -3.77494 24.2922 0
-5.13695 -3.67335 21.6653 0
-5.13613 -3.48186 22.2202 0
-4.65625 -4.25874 20.8478 0
-4.91133 -3.97846 21.2836 0
-4.96443 -4.34326 21.5051 0
-4.78155 -4.96784 21.3092 0
-4.97223 -4.72809 21.8192 0
-5.17905 -4.19196 22.9961 0
-5.07548 -4.49912 23.3528 0
-5.19275 -3.82327 22.5995 0
-5.15083 -4.43919 22.3767 0
-5.04535 -4.97508 22.0574 0
-5.19054 -5.02967 22.9968 0
-5.08167 -4.80534 23.6665 0
-4.98319 -5.49476 21.6786 0
-5.14633 -5.20971 22.3222 0
-5.13132 -5.48686 22.6291 0
-4.79243 -5.79218 22.3989 0
-5.07221 -5.76264 22.9681 0
-2.71972 -4.34593 27.231 0
-2.23809 -4.61177 27.4686 0
-3.36343 -3.82623 26.552 0
-3.15694 -4.08986 26.9319 0
-3.6298 -4.50714 26.6513 0
-4.11601 -4.7964 25.9207 0
-3.81805 -5.23996 26.1172 0
-3.62931 -3.3339 25.7357 0
-3.53124 -3.55326 26.1735 0
-3.54098 -3.22464 25.2234 0
-4.08675 -3.49992 25.0887 0
-4.48609 -3.92584 24.7837 0
-4.37821 -4.34949 25.7055 0
-4.54591 -4.97593 25.2385 0
-4.08394 -3.84956 26.0302 0
-4.46907 -4.11659 25.2755 0
-4.76674 -4.45585 24.4529 0
-4.87551 -5.25791 24.4602 0
-4.6896 -5.53467 24.7814 0
-5.03777 -5.03609 24.0808 0
-5.0439 -5.56232 23.681 0
-4.93819 -5.9735 23.3478 0
-2.73849 -4.9218 27.205 0
-1.88331 -4.79602 27.9118 0
-3.94152 -5.64232 25.7564 0
-3.44511 -5.33209 26.472 0
-3.1729 -5.25675 26.9496 0
-3.46701 -5.51973 26.6995 0
-3.03945 -5.29387 27.4803 0
-4.51858 -5.75617 24.5072 0
-4.34449 -5.67404 25.1354 0
-4.49304 -6.15209 23.2227 0
-4.56278 -5.95609 23.7991 0
-4.21201 -5.946 24.2492 0
-3.83423 -6.16222 24.1203 0
-3.91777 -5.97351 24.653 0
-3.80898 -5.75781 25.9567 0
-3.98607 -5.91492 26.3594 0
-3.97952 -5.74898 25.5205 0
-3.8564 -5.87564 25.2887 0
-3.66252 -5.98603 25.0756 0
-4.22856 -6.19946 26.0816 0
-4.07977 -6.10533 26.7796 0
-3.35982 -6.17954 24.9512 0
-3.6614 -6.08116 25.4929 0
-3.9857 -6.52722 25.7541 0
-3.77178 -6.89231 25.4752 0
-4.22248 -6.90985 26.0643 0
8.96192 -1.95072 27.7896 0
8.39418 -1.6179 27.44 0
9.89209 -2.87416 28.2942 0
9.5328 -2.32523 28.0453 0
9.149 -2.4377 26.7612 0
9.34294 -2.81698 25.8644 0
8.77553 -2.45697 25.5351 0
10.1939 -3.50907 28.4992 0
10.6178 -4.42535 26.5326 0
9.77305 -3.32252 26.152 0
9.35833 -3.28792 25.1163 0
10.0473 -3.37196 27.3053 0
10.1223 -3.88511 26.4028 0
10.119 -4.40214 25.6174 0
9.21805 -3.83956 24.5038 0
8.9346 -3.2627 24.1193 0
10.2572 -4.82886 24.8271 0
9.58121 -4.41648 24.7707 0
9.06873 -4.37108 23.9619 0
9.0012 -4.79789 23.4151 0
8.62013 -4.31788 23.0467 0
9.49952 -5.23104 23.6971 0
8.60251 -5.27767 23.0354 0
10.868 -5.27705 24.9115 0
10.2786 -5.22805 24.2349 0
10.0125 -5.70603 23.8503 0
10.3784 -6.15673 24.0356 0
9.41086 -6.35951 23.428 0
7.64662 -5.9276 22.9159 0
7.32869 -5.28941 22.6344 0
8.33214 -6.95946 23.7421 0
8.01991 -6.44857 23.2636 0
6.70438 -6.39229 23.1863 0
5.97037 -6.58442 23.9936 0
5.60213 -6.1989 23.5035 0
5.27916 -6.76816 24.8173 0
7.39549 -7.25105 24.4091 0
4.30622 -6.66323 24.9393 0
-3.15446 -6.72393 25.091 0
-3.44595 -7.18284 25.3292 0
-3.26108 -6.37784 24.4656 0
-3.13652 -6.50468 24.786 0
-2.93313 -6.79864 24.6657 0
-2.75183 -6.90308 24.3356 0
-2.63321 -7.0491 24.626 0
-3.79405 -6.33033 23.6008 0
-3.51374 -6.35924 24.0439 0
-4.26824 -6.19115 22.7081 0
-4.10527 -6.31475 23.1515 0
-3.79297 -6.5049 23.1023 0
-3.56935 -6.5479 22.6411 0
-3.52448 -6.72225 23.0703 0
-2.95337 -6.80608 23.9748 0
-2.67464 -7.04553 23.9472 0
-3.23765 -6.56243 24.0003 0
-3.25005 -6.75755 23.5256 0
-3.24995 -6.94063 23.046 0
-2.72599 -7.21096 23.4555 0
-2.42003 -7.27082 23.908 0
-2.99414 -6.99637 22.5722 0
-3.00174 -7.14958 22.9993 0
-2.75179 -7.36007 22.928 0
-2.47062 -7.46542 22.3899 0
-2.49098 -7.58237 22.8431 0
-4.55653 -5.88927 21.8342 0
-4.42254 -6.03657 22.2609 0
-4.8253 -5.79021 21.0743 0
-4.75219 -5.88689 21.4016 0
-4.35202 -6.11522 21.308 0
-4.02066 -6.29235 20.924 0
-3.85394 -6.28984 21.3585 0
-4.45925 -5.21098 20.8399 0
-4.66515 -5.515 20.9261 0
-4.08485 -4.481 20.4825 0
-4.34529 -4.87629 20.6188 0
-4.0867 -5.41578 20.3917 0
-3.41712 -5.40476 20.3176 0
-3.75047 -5.77579 20.2963 0
-4.02409 -6.20564 20.6557 0
-3.48729 -6.36877 20.7234 0
-4.51348 -5.98806 20.6386 0
-3.97108 -6.06357 20.4248 0
-3.45558 -6.13053 20.2186 0
-2.87015 -6.38506 20.4107 0
-2.85312 -6.46419 20.6655 0
-2.76355 -6.13989 20.0067 0
-2.89141 -6.27771 20.162 0
-2.16577 -6.40588 20.0895 0
-1.31845 -6.54118 19.6944 0
-1.54528 -6.65067 19.9646 0
-2.45027 -7.34482 21.9377 0
-2.35265 -7.65212 21.7003 0
-3.01337 -6.82534 22.1302 0
-2.69593 -7.07177 22.0671 0
-2.17736 -7.15178 21.6155 0
-1.93607 -6.92593 21.285 0
-1.65157 -7.30514 21.113 0
-3.65881 -6.38953 22.2021 0
-3.32107 -6.59029 22.1798 0
-4.01908 -6.20715 22.2216 0
-3.76093 -6.30967 21.7702 0
-3.43812 -6.49066 21.3416 0
-2.25272 -6.59408 21.4168 0
-1.73327 -6.75921 20.959 0
-2.86688 -6.59704 21.7811 0
-2.81216 -6.49858 21.398 0
-2.84019 -6.4713 21.0212 0
-1.62129 -6.68966 20.6231 0
-1.29951 -7.07491 20.4382 0
-2.12651 -6.46923 20.7165 0
-1.60906 -6.68418 20.286 0
-0.948683 -6.92011 19.815 0
-2.01808 -7.84428 21.1432 0
-2.27895 -7.94783 21.4786 0
-1.49913 -7.60008 20.517 0
-1.7494 -7.71505 20.8331 0
-2.03286 -8.17374 20.5207 0
-2.04242 -8.57453 19.9733 0
-2.2225 -8.57757 20.2811 0
-1.25881 -7.46763 19.802 0
-1.35991 -7.5235 20.1675 0
-0.83331 -7.3974 19.089 0
-1.05931 -7.43257 19.4501 0
-1.1308 -7.86898 19.1368 0
-1.15385 -8.20944 18.6028 0
-1.3656 -8.24655 18.972 0
-1.82319 -8.52454 19.6652 0
-2.06321 -9.06972 19.5655 0
-1.56687 -7.98543 19.8552 0
-1.58984 -8.42469 19.3468 0
-1.59916 -8.77242 18.8351 0
-2.01566 -9.51891 19.1315 0
-2.21017 -9.63478 19.4657 0
-1.53829 -9.05946 18.3615 0
-1.77521 -9.29406 18.7437 0
-1.9289 -9.79398 18.6697 0
-1.87473 -10.0595 18.3067 0
-2.01275 -10.1433 18.386 0
-2.92126 -3.57242 20.3773 0
-3.5887 -4.02508 20.4756 0
-1.26151 -3.02949 19.7254 0
-2.12871 -3.24616 19.8205 0
-2.22703 -3.72007 19.89 0
-1.53185 -3.86633 19.8827 0
-2.20093 -4.20477 19.7032 0
1.04717 -2.67034 19.319 0
-0.116425 -2.78498 19.6147 0
3.04479 -2.49507 18.9375 0
2.11315 -2.55402 19.0794 0
1.72365 -2.85914 19.6335 0
2.37184 -3.02196 20.0188 0
1.36078 -3.30327 20.0696 0
-0.712328 -3.67543 19.9818 0
-0.807455 -4.00811 20.0525 0
-0.477593 -3.26307 19.791 0
0.325773 -3.50916 20.1555 0
1.05113 -3.80813 20.5195 0
-0.0441326 -4.25057 20.5102 0
-0.822727 -4.40726 19.9112 0
1.68423 -4.14898 20.7385 0
0.750371 -4.19528 20.9477 0
0.751223 -4.56232 20.752 0
1.25598 -4.91904 21.036 0
0.902349 -5.01277 20.3163 0
4.65756 -2.29467 20.1597 0
3.86892 -2.36814 19.4514 0
6.36127 -2.00408 22.1585 0
5.4718 -2.19332 21.1095 0
5.32103 -2.46039 20.9395 0
6.10791 -2.71798 21.4766 0
5.05458 -2.69533 20.945 0
7.72334 -1.76657 24.4926 0
7.10558 -1.93792 23.2811 0
8.02542 -1.71092 26.0063 0
8.31093 -2.08728 25.0513 0
8.4651 -2.48366 24.2519 0
7.08404 -2.70114 22.3506 0
6.96606 -3.01024 21.9565 0
7.16578 -2.36356 22.7207 0
7.89639 -2.61492 23.1632 0
8.52606 -2.88526 23.619 0
7.76333 -3.25679 22.3258 0
6.6134 -3.22223 21.7777 0
8.52811 -3.27647 23.0823 0
8.29942 -3.66718 22.7497 0
7.9036 -3.97048 22.5994 0
1.76488 -4.55545 21.6719 0
1.78052 -5.35168 21.3938 0
2.47789 -3.64238 21.0907 0
2.05412 -4.09131 21.4408 0
2.39551 -4.03322 22.1539 0
3.13653 -4.05065 22.0967 0
2.74777 -4.444 22.5696 0
3.35966 -3.00465 20.0097 0
2.9194 -3.21388 20.614 0
3.64866 -2.70141 19.6283 0
4.21994 -2.86722 20.3444 0
4.76042 -2.97255 21.0618 0
3.81587 -3.78524 21.4203 0
4.21718 -4.11741 21.9176 0
3.39789 -3.45016 21.0973 0
4.33857 -3.44711 21.0856 0
5.26031 -3.064 21.6134 0
5.2211 -3.66252 22.2903 0
4.69272 -4.3712 22.6761 0
5.88485 -3.26913 22.0436 0
6.58783 -3.64674 22.3706 0
7.12641 -4.44899 22.5269 0
2.20019 -5.74637 21.9043 0
2.10758 -6.06865 20.8419 0
3.16009 -4.87465 23.0289 0
2.49545 -5.04217 22.8242 0
2.41441 -6.06573 22.5792 0
2.57769 -6.35311 23.2594 0
2.72035 -6.97357 22.0056 0
5.05194 -4.94858 22.985 0
4.08586 -4.8318 23.1604 0
6.11624 -5.04822 22.6765 0
5.30209 -5.66433 23.1331 0
4.66204 -5.94649 23.7795 0
3.00996 -5.96197 23.8408 0
2.62326 -6.747 23.9041 0
3.54993 -5.30266 23.5416 0
3.83998 -5.7214 23.9837 0
4.09551 -6.15012 24.4387 0
2.92098 -6.92528 24.5787 0
2.85165 -7.71108 23.4158 0
3.63011 -6.57992 24.9001 0
3.23132 -7.17203 25.1771 0
3.8289 -8.10633 24.4991 0
-1.59881 -10.0705 18.3093 0
-1.84363 -10.4568 18.4823 0
-1.24832 -9.06978 18.14 0
-1.39433 -9.611 18.0904 0
-1.29678 -10.036 18.1374 0
-0.987612 -10.0844 18.149 0
-1.22355 -10.5285 18.5792 0
-0.798395 -8.25616 18.3016 0
-0.943992 -8.64034 18.1629 0
-0.602087 -7.35546 18.7538 0
-0.653024 -7.8576 18.4488 0
-0.347266 -8.35101 18.0442 0
-0.00500119 -8.36737 17.7244 0
-0.0558304 -8.81681 17.7194 0
-0.636052 -9.70213 17.7138 0
-0.534923 -10.173 18.12 0
-0.804148 -9.17206 17.8985 0
-0.361616 -9.25689 17.7269 0
0.0856445 -9.33059 17.6126 0
-0.0797317 -10.2943 18.1481 0
-0.399864 -10.7508 18.6238 0
0.487783 -9.31235 17.4635 0
0.254027 -9.8687 17.6667 0
0.383574 -10.4034 18.2378 0
0.817223 -10.4062 18.5918 0
0.505529 -10.8952 18.9554 0
-1.18835 -6.41041 19.5296 0
-0.479265 -6.76079 19.2075 0
-2.4598 -5.7476 20.0745 0
-1.97938 -6.16102 19.7553 0
-1.07029 -6.24784 19.3425 0
-0.86991 -6.04698 19.1931 0
0.0239501 -6.43061 18.609 0
-3.07085 -5.01177 20.2954 0
-2.78805 -5.37444 20.2885 0
-3.40312 -4.63257 20.2724 0
-2.7223 -4.60769 20.0662 0
-2.13953 -4.61245 19.608 0
-1.47606 -5.59944 19.7009 0
-0.567602 -5.82976 19.1385 0
-2.14831 -5.38238 20.1168 0
-1.86635 -5.05268 19.7126 0
-1.47911 -4.67719 19.3034 0
-0.130634 -5.62191 19.2833 0
0.732373 -5.99027 18.5962 0
-0.607507 -5.00275 19.5018 0
0.334584 -5.36611 19.6385 0
1.40286 -5.54275 19.4703 0
1.13351 -9.97325 18.1755 0
1.24157 -10.3622 19.0676 0
0.690078 -8.80366 17.4057 0
0.929984 -9.43266 17.6378 0
1.40119 -9.52519 17.8916 0
1.6311 -8.93928 17.8153 0
1.84261 -9.53553 18.4867 0
-0.0128216 -7.90356 17.8092 0
0.400177 -8.35384 17.5554 0
-0.304319 -7.32945 18.3892 0
0.0316844 -7.26692 18.017 0
0.382484 -7.1172 17.7705 0
1.3985 -8.30053 17.4418 0
2.02326 -8.19667 17.7377 0
0.861708 -8.33075 17.3668 0
0.884247 -7.77655 17.4521 0
0.964315 -6.9056 17.7366 0
2.0197 -7.38839 18.232 0
2.4937 -8.0516 18.5846 0
1.49617 -6.64935 18.1877 0
1.86074 -6.39267 18.7996 0
2.10524 -6.19481 19.7121 0
1.70901 -10.4319 19.498 0
1.38701 -10.9412 19.6983 0
2.16735 -9.48492 19.1433 0
2.01064 -9.99199 19.2388 0
2.20479 -10.5372 19.8759 0
2.63832 -10.4886 20.4192 0
2.47378 -11.0847 20.4261 0
2.85438 -7.79129 19.5377 0
2.51699 -8.74216 19.2271 0
2.6215 -6.86416 20.1285 0
2.9862 -7.46474 20.6461 0
3.13007 -8.02736 21.316 0
2.60665 -9.88634 20.4831 0
3.19164 -10.3887 20.9921 0
2.25103 -9.35949 19.9376 0
2.76981 -9.08685 20.7908 0
3.03148 -8.56068 21.9852 0
3.61365 -9.87635 21.8003 0
3.40625 -10.6653 21.5648 0
3.50419 -8.82604 22.4673 0
3.79293 -9.13781 22.9777 0
-1.85907 -11.1742 18.7494 0
-2.09017 -10.9699 18.2941 0
-1.19404 -11.3435 18.8873 0
-1.57429 -11.2969 18.8687 0
-1.92096 -12.2429 19.0426 0
-1.60317 -13.2439 19.5666 0
-1.83459 -13.0182 19.2679 0
-0.245454 -11.4969 19.0074 0
-0.712964 -11.4028 18.9501 0
0.578583 -11.432 19.5789 0
0.162976 -11.465 19.2143 0
-0.214204 -12.1269 19.6043 0
-0.279168 -12.8798 20.1016 0
-0.642735 -13.0244 19.9725 0
-1.29132 -13.2879 19.7369 0
-0.924218 -13.7497 19.7761 0
-1.03216 -12.2618 19.3041 0
-1.02999 -13.2006 19.8675 0
-0.730792 -13.7361 20.2036 0
-0.367018 -14.0467 19.9703 0
