#!ascii - generated by CreateLabelFiles project 
3827 7340
-2.13914 -23.5248 26.045 0
-3.17079 -22.3754 26.9446 0
-3.62327 -20.8796 27.8148 0
-4.70518 -20.1911 26.5535 0
-4.49852 -20.3382 25.6226 0
-4.27721 -19.6197 27.556 0
-4.81729 -18.1646 27.9679 0
-4.93425 -16.8146 28.4407 0
0.148881 -22.9815 22.7117 0
-0.382474 -23.8552 21.9319 0
-3.46035 -21.9784 23.7563 0
-1.64865 -22.6736 23.2274 0
-0.434913 -22.0924 22.6561 0
-1.83241 -21.502 22.4914 0
0.54277 -21.6765 21.7506 0
-4.8784 -18.8987 25.9394 0
-4.57091 -20.6932 24.7352 0
-5.12513 -17.1134 27.4398 0
-5.40543 -17.5556 26.4788 0
-5.61046 -18.0033 25.5596 0
-3.77606 -20.8942 23.2271 0
-3.24469 -20.9064 22.5145 0
-4.50224 -21.0107 23.8822 0
-5.16296 -19.7392 24.1956 0
-5.61036 -18.357 24.7085 0
-4.48768 -19.8839 22.917 0
-2.72895 -20.6956 21.9452 0
-5.56923 -18.6704 23.8834 0
-5.57093 -19.0532 23.0854 0
-4.89823 -19.0398 22.5574 0
-6.48542 -28.8376 23.1448 0
-7.51899 -30.7958 22.7305 0
-4.52187 -25.6925 23.0938 0
-5.53061 -27.2379 23.2521 0
-7.58362 -29.0377 22.114 0
-7.68175 -29.2976 19.9675 0
-8.39364 -31.0918 18.0079 0
-11.2907 -32.8048 15.2134 0
-10.8452 -33.4503 13.9955 0
-9.73407 -33.598 13.3642 0
-1.10421 -23.643 21.832 0
-2.80926 -24.4572 22.6365 0
0.808971 -21.7261 20.9089 0
0.169771 -22.7855 21.1528 0
-2.19198 -23.1442 21.8505 0
-3.23568 -22.5482 21.7641 0
-5.31271 -23.9513 22.0414 0
-2.30145 -20.5423 21.4116 0
-0.261061 -20.9572 21.1349 0
-4.469 -18.8193 22.1042 0
-3.61365 -19.8291 21.8232 0
-1.70878 -20.2167 20.9554 0
-1.41445 -20.1328 20.5337 0
-0.0693729 -20.9377 19.9018 0
-1.36968 -22.2202 20.5491 0
-4.239 -22.1091 21.4077 0
0.529473 -21.7252 20.2702 0
0.0416488 -21.7283 19.7056 0
-0.704544 -21.4576 19.5102 0
-4.8278 -22.0062 20.6621 0
-6.34668 -24.1359 20.0227 0
-1.60678 -21.1714 19.3729 0
-2.79112 -21.2912 20.0563 0
-5.23841 -22.0647 19.6908 0
-5.41109 -21.6429 18.9286 0
-6.82191 -23.8232 18.0512 0
-9.9891 -31.4227 13.6835 0
-8.93859 -33.3567 12.7763 0
-9.10486 -31.8059 11.5856 0
-7.45098 -27.5112 20.833 0
-7.50548 -29.5527 17.8105 0
-5.8324 -25.6031 22.6893 0
-6.5229 -25.8292 21.4891 0
-6.82748 -26.0912 20.1436 0
-8.10318 -29.4763 14.4082 0
-8.34954 -29.4021 13.1944 0
-7.74532 -29.5503 15.9652 0
-6.90776 -27.8867 17.7461 0
-6.82147 -26.2055 18.841 0
-6.95562 -27.4427 15.364 0
-6.98636 -25.9444 17.8096 0
-6.89014 -25.7409 16.7927 0
-6.94481 -25.4723 15.8929 0
-6.96582 -25.145 15.0638 0
-4.05659 -20.5051 18.7507 0
-5.55992 -21.5472 17.8364 0
-0.821321 -20.6088 19.267 0
-2.13161 -21.056 18.7639 0
-2.59429 -20.4817 18.027 0
-1.66904 -20.0819 17.5584 0
-3.14389 -19.757 17.1841 0
-2.78798 -19.5402 20.749 0
-0.849773 -19.8062 20.1619 0
-4.32221 -18.766 21.4879 0
-4.17532 -18.9091 20.6791 0
-3.51893 -18.693 19.9908 0
-1.00038 -19.7359 18.4218 0
-1.32639 -19.2394 17.1163 0
-0.691274 -19.7479 19.4494 0
-1.54686 -19.0371 19.3682 0
-2.61881 -18.2596 19.2657 0
-1.08111 -18.214 16.6949 0
-1.59395 -19.2745 15.1513 0
-1.85054 -17.7548 18.0182 0
-0.888016 -17.0984 16.4558 0
-0.353888 -17.4503 13.8862 0
-2.66277 -23.5574 14.8606 0
-2.37929 -24.4559 15.5661 0
-6.07196 -21.118 15.731 0
-5.7817 -21.6133 16.5786 0
-4.7755 -20.0415 16.5222 0
-3.53165 -19.7 16.1426 0
-2.99319 -22.1416 14.7048 0
-1.68949 -22.7283 14.2682 0
-4.09274 -21.1004 14.1782 0
-3.60132 -20.2171 14.919 0
-2.59483 -20.0806 15.2503 0
-0.899624 -21.2331 13.3792 0
-0.220021 -22.1283 13.7278 0
-1.59084 -20.1025 13.8779 0
-0.559305 -19.6731 12.6672 0
0.730309 -18.6344 13.1938 0
-0.99179 -24.6866 14.5026 0
0.723002 -25.9573 15.3183 0
1.28495 -21.2479 12.8033 0
0.300576 -23.1983 13.5616 0
1.76686 -19.359 13.1972 0
2.6169 -19.6884 13.3438 0
3.4277 -20.0363 13.2885 0
1.73274 -24.3372 14.0168 0
2.6543 -24.5864 14.5112 0
0.919133 -23.907 13.7028 0
2.87763 -22.2618 13.1536 0
3.97895 -20.2484 13.8187 0
4.01216 -22.6971 14.7228 0
3.6069 -24.64 15.2997 0
4.38141 -20.4559 14.6619 0
4.80805 -20.724 15.6113 0
5.42175 -21.0313 16.5572 0
2.70674 -26.3895 16.044 0
4.46384 -24.4193 16.5125 0
5.59462 -22.604 17.0357 0
1.5027 1.82328 33.7156 0
2.18277 2.93127 33.4268 0
3.01363 3.49468 33.4733 0
3.5065 3.34812 33.9564 0
0.877056 3.21482 31.7294 0
1.62911 4.90781 31.7397 0
2.02076 4.47877 32.0899 0
2.75688 3.76587 32.9256 0
3.7472 3.9999 33.4759 0
2.35212 4.08243 32.4776 0
2.90537 4.66824 32.6497 0
4.22247 4.20333 33.2315 0
3.21915 4.81771 32.4803 0
3.77018 4.47751 32.7929 0
4.61105 4.32682 32.848 0
4.60276 4.25527 32.1164 0
4.96619 4.02733 32.3863 0
1.11033 5.89091 30.1732 0
2.59271 6.29847 29.3572 0
3.03707 6.65438 27.6347 0
3.31559 6.40212 29.3414 0
4.04683 6.47505 29.2886 0
3.85871 6.33613 30.0602 0
4.15611 4.5785 31.925 0
4.54685 4.2303 31.4723 0
2.77367 5.19717 32.1034 0
3.55036 4.95954 32.307 0
3.71942 4.92487 31.7509 0
3.41697 5.25763 31.4427 0
3.92212 4.85417 31.1514 0
1.37432 5.37309 31.3246 0
2.07622 5.4474 31.8885 0
1.20271 5.62788 30.8072 0
1.7408 5.93419 30.867 0
2.95884 5.65012 31.5906 0
3.32243 5.59925 31.1432 0
2.49934 5.55861 31.7524 0
2.33578 5.82657 31.2843 0
2.39145 6.03985 30.7839 0
3.38526 5.89923 30.8622 0
3.77102 5.57381 30.8088 0
3.00894 6.09265 30.636 0
3.5664 6.10123 30.4527 0
4.13525 6.10967 30.2364 0
3.79321 4.26305 30.9608 0
4.00445 3.98695 31.1854 0
3.4888 4.87207 30.5867 0
3.67328 4.54197 30.7208 0
3.21039 4.27378 30.4178 0
2.48216 4.21976 29.8874 0
2.48407 3.94406 30.159 0
3.64903 5.61833 30.2915 0
3.58755 5.25162 30.4497 0
4.38329 5.95352 29.77 0
4.122 5.73074 30.1535 0
3.87574 5.44956 29.8555 0
3.8936 5.27114 29.3343 0
3.36279 5.17363 29.4159 0
2.72381 4.44289 29.5776 0
1.97145 4.07252 29.2976 0
3.28278 4.93791 30.056 0
2.92865 4.8703 29.4844 0
2.65699 4.68601 28.896 0
1.53987 3.99694 28.6314 0
1.21298 3.85373 28.9739 0
2.51604 4.51886 28.3288 0
2.00279 4.15003 28.3876 0
1.23894 3.98015 27.966 0
1.16879 3.89761 27.4188 0
0.574866 3.74063 27.5554 0
4.202 6.6599 19.7401 0
5.68284 7.21799 21.6143 0
6.18471 7.97413 22.5392 0
4.55264 6.30183 19.6918 0
5.06775 6.49063 20.6846 0
6.04579 6.7491 21.5494 0
6.42332 6.418 21.6461 0
7.05759 7.23773 22.5987 0
4.33714 7.56079 17.0783 0
4.84212 7.26354 17.4211 0
5.26559 6.0383 18.5152 0
5.91769 5.86471 20.6232 0
6.84314 6.17762 21.8544 0
5.01859 5.99169 19.518 0
5.51303 5.70805 19.4223 0
5.81463 5.2901 19.7764 0
7.24805 5.89459 22.1085 0
7.85335 6.7163 23.0301 0
6.13269 4.88537 20.0853 0
6.65722 5.27098 21.1435 0
7.33459 5.2317 22.414 0
7.32742 4.46936 22.6642 0
8.2557 5.74612 23.6277 0
1.87011 4.03796 27.3109 0
1.42416 3.45897 26.8523 0
3.1481 4.93297 28.2377 0
2.53238 4.41904 27.8384 0
2.71017 4.15494 27.4461 0
3.53507 4.52244 27.4362 0
2.95524 3.91017 27.0269 0
4.45487 5.5923 29.1124 0
3.86515 5.28933 28.7077 0
4.69232 6.18679 29.3235 0
4.67401 5.82695 29.3097 0
4.75046 5.87693 28.7223 0
5.40369 5.9751 28.6837 0
5.0713 5.7023 28.4682 0
4.14558 5.23537 27.7171 0
4.46908 5.16346 27.3304 0
3.93345 5.40122 28.1229 0
4.71182 5.60363 28.1194 0
5.46873 5.47735 28.2633 0
5.36929 5.25455 27.4241 0
4.89309 5.08737 26.9845 0
6.31565 5.95571 28.2127 0
5.88461 5.3649 27.9032 0
6.38005 5.4302 27.4912 0
7.413 6.43298 27.3763 0
7.00677 5.84847 26.9737 0
4.23977 6.65076 28.4908 0
4.54652 6.4464 29.0186 0
3.37314 6.77879 26.6324 0
3.79878 6.81398 27.6283 0
4.60422 6.91537 27.6168 0
5.42308 7.04247 27.534 0
4.61231 7.37049 25.4412 0
5.49431 7.60713 25.1565 0
5.78077 8.45449 23.9903 0
6.43734 7.94152 24.8302 0
6.51162 9.59386 22.8294 0
7.73928 6.98028 27.5506 0
8.15089 7.42987 27.6664 0
6.69595 6.60671 28.329 0
7.26878 6.79799 28.0506 0
7.94843 7.43645 27.6481 0
8.10116 7.89441 27.2423 0
8.46066 8.34403 27.2563 0
5.67779 6.54535 28.7056 0
6.11157 6.4692 28.472 0
5.00422 6.41825 28.7453 0
5.63769 6.8389 28.3866 0
6.27239 7.22631 27.4882 0
7.58913 7.55871 27.2227 0
8.00055 8.1203 26.0058 0
6.91839 7.01661 27.9821 0
7.09505 7.4209 27.3854 0
6.79878 7.49261 25.9695 0
7.65924 8.31383 24.8303 0
8.18594 8.55709 25.0378 0
7.11025 8.15562 24.7747 0
7.22721 9.1976 23.7745 0
6.75394 8.86649 23.1909 0
8.65972 8.29918 28.1479 0
8.60969 7.69859 27.8423 0
9.02061 8.78283 26.3683 0
8.89312 8.59133 27.5833 0
9.34757 8.77387 27.8857 0
10.1423 8.85989 26.4864 0
9.83201 8.83504 27.8804 0
8.04751 8.72858 24.2562 0
8.70972 8.81276 25.2441 0
7.09158 8.30538 23.3223 0
7.6685 8.12421 23.4016 0
8.15685 7.94102 23.5593 0
9.77575 8.7313 25.4765 0
10.085 8.50378 25.7477 0
9.3105 8.7987 25.3076 0
9.23691 8.58797 24.5288 0
8.54334 7.66709 23.8092 0
9.83589 7.98784 25.1165 0
10.3609 8.33757 26.1613 0
8.85756 7.32982 24.1329 0
9.14948 6.9518 24.4588 0
9.30202 6.42266 24.826 0
1.6588 3.20736 26.3065 0
1.07922 2.84923 26.4007 0
3.28451 3.828 26.6844 0
2.36982 3.55635 26.3364 0
1.84937 3.10016 25.6911 0
2.12618 3.1089 25.0605 0
1.38008 2.82715 24.9027 0
5.45203 4.74415 26.8029 0
4.2318 4.49862 26.6266 0
7.71495 6.26668 26.6364 0
6.6119 5.30518 26.6301 0
6.15626 4.78255 26.3435 0
6.81256 4.93223 26.2498 0
5.6151 4.00549 26.3799 0
3.07589 3.36786 25.5039 0
2.57186 3.02823 24.5192 0
3.63718 3.79697 26.3164 0
4.19241 3.59727 26.0146 0
4.87869 3.35674 25.8267 0
2.99463 2.72083 24.2212 0
2.08102 2.76299 23.466 0
5.27681 2.92065 26.2804 0
4.07647 2.63891 25.2129 0
3.38777 2.21631 24.4469 0
3.96583 1.5463 25.3205 0
3.17801 1.79195 23.689 0
8.85817 7.94451 28.6702 0
8.6402 7.01196 27.2433 0
10.2239 8.77936 28.0653 0
9.52687 8.57001 28.7655 0
9.30622 8.03439 29.1302 0
9.86343 7.95317 29.4034 0
9.3805 7.21886 28.9218 0
10.6727 7.9358 26.5918 0
10.7408 8.62154 27.2406 0
9.37984 5.87916 25.261 0
10.3524 7.0638 25.8879 0
11.0319 7.49512 26.9651 0
11.2596 6.90677 27.5678 0
11.5095 7.80015 28.0638 0
10.5236 8.48537 29.3356 0
10.3901 7.85678 29.7833 0
10.6101 8.61803 28.3909 0
11.0206 8.28347 28.7993 0
11.3674 7.92466 29.3058 0
10.8012 7.67738 30.3096 0
10.2787 7.08668 30.1539 0
11.5846 7.33346 29.9042 0
11.2189 7.91596 30.3391 0
11.0498 7.30355 30.8202 0
11.4213 6.79195 31.2908 0
10.8132 6.62032 31.3028 0
5.30836 1.81982 26.5161 0
4.75715 1.27242 26.0281 0
6.96488 3.66082 26.7757 0
6.09646 2.67249 26.5655 0
6.78326 2.57387 27.1735 0
8.07821 3.32955 28.0069 0
7.28784 2.49263 27.8636 0
8.18746 5.57863 26.7919 0
7.71957 4.69218 26.872 0
8.46137 6.3399 26.885 0
9.09276 6.30325 27.6812 0
9.58741 6.21178 28.4936 0
9.0612 4.21878 28.0921 0
9.47709 3.89065 28.7437 0
8.42854 4.43183 27.3976 0
9.4279 5.19146 28.2655 0
10.0508 6.02532 29.2407 0
10.1245 4.77745 29.7006 0
9.72628 3.68293 29.4333 0
10.4151 5.93678 29.9078 0
10.5307 5.85463 30.6147 0
10.6986 5.61429 31.2267 0
5.54343 1.08413 26.4553 0
4.33361 0.779312 25.0641 0
7.79685 2.26413 28.4925 0
6.69426 1.69547 27.4891 0
6.14133 0.914986 27.0056 0
6.52485 0.627845 27.6294 0
5.6734 0.306884 26.0478 0
9.84879 3.57575 30.1667 0
8.95916 2.80478 29.2671 0
10.8963 5.49509 31.9101 0
10.462 4.61478 31.1743 0
10.0036 3.47986 30.9105 0
10.118 3.45506 31.6271 0
9.44644 2.48269 30.5985 0
7.56144 1.20067 28.6634 0
6.84321 0.30484 28.1932 0
8.23845 2.01251 29.0908 0
8.5226 1.73514 29.666 0
8.76788 1.51054 30.2979 0
7.27549 0.0855122 28.6472 0
6.58949 -0.237451 27.2059 0
9.10092 1.38466 30.8758 0
8.26605 0.582984 29.7638 0
7.75485 -0.115558 29.0856 0
8.40059 -0.41233 29.4139 0
7.59461 -0.773 28.1813 0
9.13649 0.101278 30.6306 0
8.97319 -0.628959 29.6827 0
9.88247 2.29792 31.8748 0
9.368 1.21823 31.3983 0
9.84652 1.02912 31.6363 0
10.442 1.61206 32.6525 0
10.2563 0.609857 31.897 0
10.7208 4.33752 32.5037 0
10.2299 3.27347 32.2781 0
11.5793 6.10256 32.2928 0
11.2529 5.41946 32.5452 0
11.418 4.97549 33.0983 0
11.9799 4.87101 33.273 0
11.5783 4.31034 33.6579 0
10.4189 2.51781 33.4518 0
10.6611 1.83521 33.6801 0
10.3727 3.00998 32.8163 0
10.8553 3.43207 33.7306 0
11.4138 3.53729 34.4213 0
11.0129 1.81571 34.4355 0
10.7954 1.02559 33.828 0
11.8271 3.08081 34.6023 0
11.4062 2.61845 34.8932 0
11.5499 1.55763 34.9648 0
12.0304 6.67688 31.2792 0
11.8564 6.447 31.8101 0
11.9265 6.55807 29.4076 0
11.9929 6.63988 30.4148 0
12.2472 6.03272 31.1267 0
12.312 5.0668 30.8472 0
12.405 5.20161 31.6631 0
10.8572 5.89391 27.0143 0
11.4931 6.24055 28.2696 0
8.80677 4.87411 24.2452 0
9.73281 5.33175 25.7523 0
10.2813 4.77635 26.3834 0
9.94061 3.71568 25.4534 0
10.878 4.06437 27.1552 0
11.9648 4.74329 29.8157 0
12.1087 3.77644 30.4732 0
11.8261 5.55842 29.0324 0
11.5482 4.40234 28.5617 0
11.2271 3.19968 27.9933 0
11.9507 2.52146 30.1627 0
12.3432 2.81402 31.2079 0
11.042 2.13307 27.2387 0
11.4516 2.21663 28.9279 0
11.7752 1.22681 29.8489 0
11.8724 0.0429877 29.3186 0
12.0925 0.443696 30.6723 0
12.1418 1.52544 35.1736 0
12.2082 3.37916 34.1314 0
12.2065 2.44318 34.6952 0
12.3724 1.72919 34.7204 0
12.5412 1.82068 34.2037 0
12.6036 1.18739 34.8374 0
12.2333 5.24626 32.9213 0
12.2275 4.3603 33.5185 0
12.0883 5.91918 32.3812 0
12.3767 5.28171 32.3626 0
12.4859 4.22 32.1914 0
12.4144 2.50925 33.6235 0
12.4125 1.49654 33.4265 0
12.2883 3.41523 33.5963 0
12.4092 3.34511 32.9412 0
12.4085 3.10481 32.1369 0
12.2605 1.10604 32.5866 0
12.9393 0.746885 33.0284 0
12.2998 1.89619 31.9536 0
12.1817 0.791528 31.6703 0
12.4266 -0.0410979 31.3505 0
12.6587 -0.905469 30.8111 0
12.9003 -0.420205 31.9491 0
6.92456 4.13158 21.4691 0
7.8201 4.2317 22.8461 0
5.99582 4.89647 18.6013 0
6.40725 4.41677 20.1003 0
6.69907 3.8953 20.1816 0
6.7301 3.55612 18.9559 0
7.41289 3.24664 20.4985 0
5.78058 6.2624 17.5784 0
7.23173 9.9392 17.1885 0
6.86811 8.27782 16.5542 0
6.45579 4.93155 17.4018 0
7.12175 3.9734 17.8959 0
6.11085 5.61608 17.3837 0
6.54688 6.53879 16.6977 0
6.88699 6.62765 16.4412 0
7.60382 4.16662 17.3056 0
8.07008 2.79363 18.5789 0
7.29368 6.6639 16.4502 0
7.22574 5.30199 16.5786 0
8.06544 4.26184 16.8951 0
8.44694 4.33538 16.6408 0
8.90047 2.29959 18.3491 0
8.41093 5.99842 16.5398 0
8.84285 4.3519 16.8873 0
7.9338 7.08872 16.5349 0
8.99979 9.24379 17.6553 0
9.09448 7.74506 17.1043 0
9.23232 4.3409 17.0405 0
9.62284 1.96464 18.1936 0
9.58276 7.9019 17.4043 0
9.31685 6.29477 17.0356 0
9.60071 4.18877 17.2566 0
9.9559 3.98869 17.5967 0
10.4533 1.80407 17.8376 0
9.93231 6.07661 17.6728 0
10.21 3.74794 17.4216 0
12.4243 -1.09156 29.5683 0
13.0105 -1.42473 30.2576 0
13.4331 -1.14523 28.3515 0
11.6936 0.039913 27.5212 0
11.8946 -0.850478 28.7072 0
10.6757 2.05537 25.317 0
11.2794 1.12954 26.2716 0
11.3577 0.288392 25.4861 0
11.1414 0.748466 23.6178 0
11.5447 -0.135043 24.885 0
9.10691 3.39428 23.6876 0
9.86775 2.71439 24.4585 0
8.51842 4.0605 23.1276 0
8.38871 3.2648 21.9689 0
8.48898 2.51069 20.759 0
10.3193 1.07989 22.6157 0
10.5261 0.646691 22.1015 0
10.1277 1.83084 23.4122 0
9.47388 1.72642 21.6802 0
8.72005 1.85546 19.9165 0
9.95918 0.67822 20.7695 0
10.731 0.30759 21.698 0
9.09632 1.59808 19.7892 0
9.39277 1.18742 19.5444 0
9.77734 1.0401 19.4933 0
13.0057 -0.437022 23.3466 0
12.6061 -0.985884 27.4636 0
13.1993 -1.28714 26.8452 0
12.2929 -0.826751 28.0662 0
12.0277 -0.871043 26.2219 0
11.7827 -0.5044 24.3828 0
12.594 -0.603104 23.6264 0
12.3161 -0.413158 22.1886 0
12.8601 -1.04802 25.2319 0
12.0678 -0.913121 23.9688 0
11.6211 -0.0724903 22.7588 0
11.5015 -0.0362344 21.1527 0
11.9432 -0.0270534 20.9889 0
11.0728 -0.0897662 21.3866 0
10.622 0.38534 20.2153 0
10.2058 1.08182 19.282 0
13.0978 -0.230498 21.7117 0
11.5108 0.417812 19.8892 0
12.335 -0.0894612 20.7964 0
10.6378 1.11019 19.0944 0
11.0054 0.860396 18.8299 0
11.348 0.543519 18.5235 0
12.9959 -0.145498 20.2234 0
9.53407 -0.926573 29.9233 0
8.87423 -1.40668 28.7904 0
10.6216 0.053884 32.0398 0
10.079 -0.445831 31.0322 0
9.96508 -1.34801 30.1288 0
10.382 -1.92236 30.2482 0
9.8736 -2.19557 29.2179 0
11.1006 0.187619 33.9442 0
10.8684 0.204505 33.0006 0
10.8481 -1.67118 31.2116 0
10.8089 -2.58341 30.3232 0
10.8529 -0.716228 32.1418 0
11.0736 -1.58458 32.165 0
4.89182 3.6288 32.0046 0
3.32568 3.59091 31.0014 0
4.12246 3.57368 31.4737 0
1.68592 3.51489 30.0197 0
2.45918 3.58867 30.5365 0
2.48554 3.12781 30.8613 0
1.79091 2.58444 30.625 0
2.64953 2.56725 31.0755 0
0.592557 3.33668 28.5917 0
1.07288 3.39919 29.335 0
0.262181 3.06149 27.1742 0
0.315308 3.25331 27.8721 0
0.172397 2.77733 28.2268 0
-0.0639884 2.37329 27.8489 0
0.0774806 2.4731 28.6386 0
0.980142 2.62581 30.1246 0
1.13718 2.06892 30.3303 0
1.01983 3.0267 29.7066 0
0.36208 2.54548 29.438 0
-0.00479618 2.12263 29.0991 0
0.477398 1.57788 30.0943 0
1.33042 1.48773 30.5569 0
-0.0650119 1.60654 28.6143 0
0.102189 1.64334 29.4325 0
0.314588 1.06691 29.6523 0
0.214801 0.67746 29.2181 0
0.497749 0.615542 29.9471 0
3.47749 2.66127 31.6155 0
2.76449 2.09653 31.354 0
2.82177 1.63953 31.7363 0
2.02378 1.54481 31.2049 0
1.36166 1.0345 30.9653 0
0.783377 0.572235 30.812 0
0.634268 0.197217 30.431 0
0.749204 -0.247989 29.7987 0
0.935674 -0.261992 30.7906 0
0.770685 2.4544 25.7497 0
0.515327 2.61114 26.5836 0
1.12564 2.4347 24.1054 0
0.923497 2.41173 24.9289 0
0.474691 2.07731 25.0078 0
0.503062 1.494 24.3388 0
0.0972864 1.74054 25.1658 0
1.90918 2.38215 22.6327 0
1.48073 2.45433 23.2804 0
3.05027 1.39577 22.8265 0
2.43873 1.99237 22.4984 0
1.74128 1.90467 21.919 0
1.65871 1.55566 21.0958 0
1.01987 1.58011 21.7613 0
0.834889 1.38402 23.5105 0
0.514491 0.881096 23.6758 0
1.06919 1.9848 23.3459 0
0.881522 1.49008 22.6161 0
0.554904 1.12036 21.8164 0
0.196428 0.600211 22.8929 0
0.0865315 0.489842 23.8393 0
0.438205 0.715236 21.0677 0
0.263685 0.711491 21.9355 0
-0.128077 0.378345 22.158 0
-0.66438 0.219137 21.5391 0
-0.542188 0.079755 22.4405 0
4.30145 0.432142 23.8319 0
3.61082 0.832772 23.3745 0
5.41226 -0.214068 24.9522 0
4.92017 0.0779865 24.3484 0
4.26103 0.0601726 22.7497 0
4.22127 -0.37104 21.851 0
3.68085 0.157058 21.3839 0
6.59683 -0.606985 26.0164 0
6.03166 -0.410495 25.4519 0
7.80692 -1.26396 27.062 0
7.1942 -0.92528 26.5563 0
6.84664 -1.04097 24.8942 0
7.03641 -1.46687 23.9597 0
6.36581 -1.15943 23.3268 0
4.753 -0.83483 22.3338 0
4.0781 -0.859706 21.1567 0
5.61604 -0.541801 23.6477 0
5.5799 -0.983412 22.7932 0
5.65273 -1.34448 22.0417 0
4.11696 -1.2717 20.4324 0
3.41081 -0.832639 20.102 0
5.58913 -1.76196 21.506 0
4.82781 -1.64102 20.8403 0
4.09039 -1.68106 19.882 0
3.98161 -1.98255 19.5814 0
3.30572 -1.66924 19.1163 0
-0.583085 0.291367 20.6685 0
-1.13825 -0.0562964 21.1089 0
0.914628 0.761881 20.1922 0
0.120304 0.447146 20.3662 0
-0.255026 0.3433 19.8432 0
0.365321 0.294328 19.1502 0
-0.551631 0.053819 19.5364 0
2.38446 1.29127 20.8934 0
1.79519 1.28669 20.1342 0
3.01858 1.14306 21.9001 0
3.03436 0.805191 21.0165 0
3.01914 0.406685 20.1409 0
1.32959 0.485805 18.9703 0
1.0872 -0.183353 18.917 0
1.55381 0.956268 19.4441 0
2.21246 0.49941 19.3366 0
2.85196 -0.169507 19.6692 0
1.82303 -0.712443 18.9533 0
0.945674 -0.742722 18.8448 0
2.6967 -0.700334 19.2828 0
2.57172 -1.19923 19.0239 0
2.44191 -1.67594 18.9296 0
-1.57246 -0.351883 20.9541 0
-1.51391 -0.567824 21.5472 0
-0.756115 -0.709498 19.5917 0
-1.35193 -0.359309 20.3009 0
-2.04745 -0.746196 20.8932 0
-2.36009 -1.32028 20.937 0
-2.59442 -1.19574 21.3328 0
0.782415 -1.31492 18.977 0
0.00825085 -1.01698 19.1637 0
2.3035 -2.09866 18.9126 0
1.56804 -1.72406 18.9118 0
0.530156 -1.82969 19.1156 0
0.23406 -2.31088 19.3388 0
-0.641505 -2.06384 19.5062 0
-2.02782 -1.53338 20.4632 0
-2.82323 -1.72398 20.7889 0
-1.1054 -1.35181 19.698 0
-1.46244 -1.82534 19.8171 0
-1.74768 -2.26619 19.7521 0
-3.24515 -2.15567 20.546 0
-3.57335 -1.98579 21.0849 0
-1.99678 -2.73086 19.755 0
-2.70288 -2.4331 20.0465 0
-3.48363 -2.69931 20.5368 0
-3.63229 -3.33782 20.7331 0
-4.26839 -3.14086 20.9037 0
1.88001 -1.97725 29.3855 0
1.76441 -2.68953 28.7367 0
1.09689 -2.65534 27.8702 0
1.35435 -2.95926 28.0351 0
1.36498 -1.18909 29.0914 0
1.65448 -1.5719 29.2527 0
0.836987 -0.282306 28.6346 0
1.21022 -0.767903 28.8722 0
1.1329 -1.18448 28.0659 0
0.535378 -1.18708 27.2148 0
0.634509 -1.58588 27.4337 0
0.917722 -2.28594 27.7355 0
0.327529 -2.50901 27.2178 0
1.35399 -1.97682 28.4242 0
0.75656 -1.91926 27.5837 0
0.102545 -1.83287 26.8362 0
-0.619086 -2.31489 26.6683 0
-0.45232 -2.67182 26.8484 0
-0.771331 -1.65139 26.1917 0
-0.65829 -1.96935 26.4045 0
-1.49829 -2.18111 26.0138 0
-2.33477 -2.17076 25.4147 0
-2.2836 -2.50874 25.6947 0
0.450014 0.570387 28.1498 0
0.680683 0.0970121 28.3809 0
-0.0182653 1.50422 27.6073 0
0.117227 1.0358 27.9155 0
0.640648 0.440739 27.0637 0
0.304978 0.399247 26.1563 0
0.498084 -0.0640717 26.4233 0
-0.118188 2.17647 27.0094 0
-0.164138 1.91381 27.2994 0
-0.00211571 2.43543 26.7271 0
-0.138349 1.94939 26.0396 0
-0.200005 1.37692 25.3455 0
0.120939 0.759365 25.8798 0
-0.0349187 0.304978 25.2815 0
0.0532355 1.33329 26.5538 0
-0.00165383 1.02092 25.6034 0
-0.136406 0.672742 24.7006 0
-0.242709 0.112975 24.3597 0
-0.349126 -0.109103 24.677 0
-0.237086 0.202278 24.0616 0
-0.498882 0.011792 23.3862 0
-0.894593 -0.309504 22.7796 0
-2.30601 -1.80804 25.0767 0
-3.05297 -2.18783 24.7265 0
-0.6265 -1.48152 25.8501 0
-1.42719 -1.60656 25.387 0
-2.18668 -1.56073 24.7202 0
-1.87137 -1.439 24.3234 0
-2.83623 -1.56018 23.9975 0
0.606234 -0.873559 26.961 0
0.0741044 -1.25235 26.3586 0
1.02495 -0.399448 27.5867 0
0.56975 -0.504969 26.6917 0
0.143794 -0.549694 25.8206 0
-1.06441 -1.23419 24.6894 0
-1.5562 -1.26302 23.934 0
-0.517249 -1.23161 25.5534 0
-0.39096 -0.941631 25.2574 0
-0.336243 -0.564411 24.9591 0
-1.38002 -0.979859 23.5628 0
-2.04337 -1.29961 23.1536 0
-0.811235 -0.593498 24.0503 0
-1.09431 -0.665737 23.1389 0
-1.39198 -0.69348 22.2627 0
-3.57905 -2.30317 24.0656 0
-3.5618 -2.64403 24.4414 0
-3.07574 -1.79145 23.3304 0
-3.41393 -2.00232 23.7126 0
-3.92987 -2.50249 23.3985 0
-4.14403 -2.7787 22.7265 0
-4.4968 -2.94291 23.1069 0
-2.3692 -1.25049 22.4411 0
-2.69181 -1.62437 22.894 0
-2.00728 -0.966683 21.9594 0
-2.66963 -1.16414 21.7929 0
-3.21847 -1.50892 21.6624 0
-3.83587 -2.47968 22.3895 0
-4.35745 -3.03488 22.0891 0
-3.31005 -1.97584 22.672 0
-3.52513 -1.93917 22.1066 0
-3.71079 -1.89195 21.5646 0
-4.4561 -3.01953 21.6475 0
-4.79953 -3.29037 21.8666 0
-4.11903 -2.44794 21.389 0
-4.54185 -2.99973 21.2304 0
-4.72008 -3.56912 21.0497 0
0.695304 -3.11708 27.6464 0
1.60157 -3.06462 28.3901 0
1.1558 -3.31749 28.4757 0
-1.28337 -2.85728 26.5489 0
-0.267422 -3.01322 27.0655 0
-3.02393 -2.82909 25.4395 0
-2.27789 -2.79941 26.048 0
-2.11631 -3.12321 26.3145 0
-2.87958 -3.34067 26.2304 0
-1.88794 -3.42557 26.681 0
0.15024 -3.35813 27.8132 0
0.385506 -3.46785 28.3022 0
-0.0682759 -3.25323 27.3479 0
-0.862703 -3.43198 27.1681 0
-1.65906 -3.6612 27.0991 0
-0.349391 -3.70594 28.1187 0
0.910955 -3.58931 28.6281 0
-2.39887 -3.90988 26.9871 0
-1.34598 -3.84715 27.5299 0
-0.980754 -4.08159 27.9067 0
-1.61372 -4.39783 27.6868 0
-0.572357 -4.15117 28.4451 0
-4.08223 -3.04652 24.1886 0
-3.53924 -2.95148 24.8515 0
-5.04518 -3.31346 22.8273 0
-4.71651 -3.13559 23.4945 0
-4.61382 -3.43573 23.8939 0
-4.92421 -3.88836 23.6169 0
-4.44593 -3.74532 24.2892 0
-5.1283 -3.61812 21.6544 0
-5.12669 -3.43083 22.2116 0
-4.64813 -4.20255 20.8304 0
-4.90389 -3.92272 21.2694 0
-4.96035 -4.28909 21.4903 0
-4.78017 -4.91477 21.2912 0
-4.97185 -4.67662 21.8048 0
-5.17403 -4.14663 22.9885 0
-5.06907 -4.45797 23.3462 0
-5.18676 -3.77466 22.5911 0
-5.14975 -4.38983 22.3661 0
-5.04758 -4.92522 22.0439 0
-5.18861 -4.98606 22.9886 0
-5.07561 -4.76726 23.661 0
-4.98618 -5.44445 21.6624 0
-5.15113 -5.16157 22.31 0
-5.13425 -5.44218 22.6182 0
-4.7976 -5.74878 22.3854 0
-5.07345 -5.72179 22.9585 0
-2.70471 -4.34077 27.2424 0
-2.22198 -4.60867 27.4817 0
-3.34981 -3.81685 26.5591 0
-3.14314 -4.08272 26.9409 0
-3.62102 -4.4968 26.6576 0
-4.11152 -4.77998 25.9231 0
-3.81544 -5.22627 26.1202 0
-3.61524 -3.31931 25.7392 0
-3.51751 -3.54142 26.1787 0
-3.52601 -3.20738 25.2255 0
-4.07459 -3.47841 25.0888 0
-4.47674 -3.89955 24.7824 0
-4.37214 -4.33044 25.7071 0
-4.54345 -4.95316 25.2378 0
-4.0739 -3.83426 26.0334 0
-4.46144 -4.09402 25.2757 0
-4.76016 -4.42535 24.4498 0
-4.873 -5.2282 24.4567 0
-4.68951 -5.5087 24.7784 0
-5.03364 -5.00201 24.0766 0
-5.04205 -5.52657 23.6747 0
-4.9392 -5.93699 23.3392 0
-2.72553 -4.91575 27.2157 0
-1.86531 -4.79497 27.9267 0
-3.94195 -5.62633 25.7575 0
-3.44065 -5.32148 26.4771 0
-3.16413 -5.24834 26.9575 0
-3.46212 -5.50939 26.7053 0
-3.02754 -5.28711 27.4908 0
-4.51823 -5.7302 24.5029 0
-4.34539 -5.65269 25.1337 0
-4.49571 -6.11763 23.2124 0
-4.5628 -5.92542 23.7914 0
-4.21064 -5.9209 24.2437 0
-3.8323 -6.13912 24.1143 0
-3.9169 -5.95258 24.6493 0
-3.81006 -5.74353 25.9586 0
-3.98772 -5.90121 26.3624 0
-3.98033 -5.7318 25.5205 0
-3.85687 -5.85825 25.2877 0
-3.66215 -5.96888 25.0736 0
-4.23481 -6.18414 26.0832 0
-4.07972 -6.09245 26.7836 0
-3.35905 -6.16368 24.9492 0
-3.66292 -6.06594 25.4926 0
-3.99322 -6.51205 25.7542 0
-3.77943 -6.87765 25.4739 0
-4.23176 -6.89567 26.0644 0
8.97039 -1.94612 27.8008 0
8.40029 -1.61292 27.452 0
9.90121 -2.87043 28.3045 0
9.54162 -2.32078 28.0564 0
9.15008 -2.43323 26.7705 0
9.33729 -2.81192 25.8719 0
8.76843 -2.45076 25.5443 0
10.2017 -3.50741 28.5082 0
10.6147 -4.42009 26.5336 0
9.7689 -3.31781 26.1572 0
9.34946 -3.28136 25.1198 0
10.049 -3.36855 27.3125 0
10.1185 -3.88071 26.4064 0
10.1122 -4.39577 25.6165 0
9.20691 -3.83137 24.5027 0
8.92392 -3.25379 24.1186 0
10.247 -4.81889 24.8223 0
9.57019 -4.4085 24.7684 0
9.05535 -4.36078 23.9568 0
8.98448 -4.78518 23.4074 0
8.60331 -4.3049 23.0402 0
9.48199 -5.21792 23.6888 0
8.58186 -5.26372 23.0257 0
10.8578 -5.26482 24.9051 0
10.2653 -5.21487 24.2276 0
9.9957 -5.69106 23.8401 0
10.3623 -6.14016 24.023 0
9.39208 -6.34282 23.4109 0
7.62857 -5.91479 22.898 0
7.31005 -5.27639 22.6212 0
8.31581 -6.94719 23.7184 0
8.00264 -6.43544 23.2419 0
6.69452 -6.37969 23.1634 0
5.97176 -6.56856 23.9749 0
5.60614 -6.18261 23.4846 0
5.28655 -6.74821 24.8069 0
7.38776 -7.2418 24.3849 0
4.31848 -6.6402 24.936 0
-3.15676 -6.71025 25.0892 0
-3.45295 -7.16946 25.3274 0
-3.25974 -6.36033 24.4617 0
-3.13654 -6.48958 24.7834 0
-2.93423 -6.78413 24.6626 0
-2.75286 -6.88784 24.3315 0
-2.63481 -7.03568 24.6229 0
-3.79705 -6.304 23.5926 0
-3.51204 -6.33793 24.0376 0
-4.27345 -6.15489 22.696 0
-4.1108 -6.28314 23.1413 0
-3.80062 -6.47558 23.0922 0
-3.57665 -6.51685 22.6295 0
-3.53341 -6.69484 23.0603 0
-2.95423 -6.788 23.969 0
-2.67689 -7.02874 23.9413 0
-3.23707 -6.54277 23.9944 0
-3.25494 -6.73475 23.5177 0
-3.25901 -6.91492 23.0365 0
-2.73237 -7.19045 23.4481 0
-2.42356 -7.25471 23.9022 0
-3.00126 -6.96906 22.562 0
-3.01048 -7.125 22.9905 0
-2.76029 -7.33601 22.9197 0
-2.47643 -7.43935 22.3801 0
-2.49892 -7.55837 22.8351 0
-4.56124 -5.84378 21.8177 0
-4.42817 -5.99554 22.2466 0
-4.82553 -5.73789 21.0546 0
-4.75471 -5.83749 21.3833 0
-4.35291 -6.06872 21.2897 0
-4.01798 -6.24574 20.9047 0
-3.85343 -6.24734 21.3413 0
-4.45446 -5.15775 20.8196 0
-4.66319 -5.46157 20.9054 0
-4.07379 -4.42703 20.4625 0
-4.33739 -4.82186 20.5985 0
-4.07802 -5.36235 20.3698 0
-3.40611 -5.3554 20.2971 0
-3.74125 -5.72471 20.2749 0
-4.01945 -6.15679 20.6355 0
-3.48177 -6.32389 20.7041 0
-4.51002 -5.93544 20.6174 0
-3.96433 -6.01291 20.4038 0
-3.44689 -6.0817 20.1977 0
-2.86321 -6.34338 20.3925 0
-2.84699 -6.42442 20.6481 0
-2.75561 -6.09566 19.9875 0
-2.88366 -6.23394 20.143 0
-2.15833 -6.36783 20.073 0
-1.30956 -6.50541 19.68 0
-1.5378 -6.61585 19.9496 0
-2.45368 -7.31672 21.9258 0
-2.35572 -7.62335 21.6875 0
-3.01737 -6.79497 22.1181 0
-2.69958 -7.04312 22.0555 0
-2.17766 -7.12316 21.6028 0
-1.93322 -6.89657 21.2716 0
-1.65012 -7.27592 21.0987 0
-3.66312 -6.35449 22.1887 0
-3.32526 -6.55778 22.1671 0
-4.02384 -6.16938 22.2078 0
-3.7628 -6.27075 21.7549 0
-3.43679 -6.45106 21.3249 0
-2.24925 -6.56343 21.4036 0
-1.72787 -6.72907 20.9447 0
-2.86736 -6.56475 21.7678 0
-2.80955 -6.46379 21.3832 0
-2.83515 -6.43377 21.0048 0
-1.61503 -6.65819 20.6086 0
-1.29477 -7.04363 20.4231 0
-2.11969 -6.43494 20.7011 0
-1.60236 -6.65084 20.2711 0
-0.940823 -6.88642 19.8004 0
-2.01897 -7.81328 21.1296 0
-2.28138 -7.91809 21.4659 0
-1.49735 -7.56769 20.5019 0
-1.7492 -7.68324 20.8185 0
-2.0336 -8.13988 20.5067 0
-2.03559 -8.53991 19.9613 0
-2.22022 -8.54362 20.2688 0
-1.25091 -7.43323 19.7873 0
-1.35519 -7.49016 20.1526 0
-0.821883 -7.35967 19.0756 0
-1.049 -7.39682 19.4359 0
-1.11801 -7.83148 19.1238 0
-1.13773 -8.16861 18.5924 0
-1.34975 -8.20804 18.9606 0
-1.81198 -8.48928 19.6534 0
-2.04861 -9.03456 19.5559 0
-1.55977 -7.95054 19.8412 0
-1.57435 -8.38892 19.3349 0
-1.57931 -8.73319 18.8257 0
-1.99192 -9.48225 19.1232 0
-2.19095 -9.60022 19.4577 0
-1.51552 -9.0167 18.354 0
-1.7511 -9.25425 18.7356 0
-1.9008 -9.75381 18.6627 0
-1.84475 -10.0162 18.3004 0
-1.9819 -10.1006 18.3797 0
-2.9039 -3.52655 20.3655 0
-3.57449 -3.97452 20.4586 0
-1.23792 -2.99359 19.7221 0
-2.10728 -3.20283 19.8127 0
-2.20847 -3.67653 19.8798 0
-1.51295 -3.82898 19.8756 0
-2.18412 -4.16018 19.6909 0
1.063 -2.64613 19.3235 0
-0.094132 -2.75727 19.6173 0
3.04685 -2.47187 18.9332 0
2.12113 -2.53077 19.0793 0
1.73496 -2.83733 19.6366 0
2.37917 -3.00165 20.0213 0
1.37474 -3.28129 20.0712 0
-0.692406 -3.64472 19.9791 0
-0.789444 -3.97677 20.0482 0
-0.455521 -3.23335 19.7904 0
0.343914 -3.48476 20.1563 0
1.06566 -3.7864 20.5193 0
-0.0286662 -4.22574 20.5081 0
-0.806179 -4.37424 19.9048 0
1.69685 -4.12795 20.7356 0
0.765217 -4.17473 20.9476 0
0.765928 -4.53994 20.7496 0
1.26945 -4.89753 21.0315 0
0.916034 -4.98725 20.3102 0
4.64984 -2.27667 20.1629 0
3.86628 -2.34766 19.4505 0
6.34963 -1.98996 22.1618 0
5.46101 -2.17775 21.1124 0
5.31105 -2.44412 20.9403 0
6.09454 -2.70247 21.4766 0
5.04577 -2.67864 20.9456 0
7.71495 -1.75553 24.5016 0
7.09521 -1.92476 23.2858 0
8.02426 -1.70363 26.0181 0
8.30354 -2.07894 25.06 0
8.45534 -2.47465 24.2555 0
7.07003 -2.68724 22.3494 0
6.95106 -2.99561 21.9533 0
7.15327 -2.35022 22.7217 0
7.88385 -2.60305 23.163 0
8.51413 -2.87487 23.6184 0
7.74775 -3.24318 22.3209 0
6.59836 -3.20708 21.7742 0
8.51451 -3.26494 23.0782 0
8.2836 -3.65422 22.7442 0
7.88681 -3.95689 22.5932 0
1.77591 -4.53745 21.6703 0
1.79179 -5.33056 21.388 0
2.48546 -3.6238 21.0898 0
2.06398 -4.0732 21.4395 0
2.40381 -4.01689 22.1555 0
3.1421 -4.03388 22.0949 0
2.75834 -4.42699 22.5707 0
3.36065 -2.9841 20.0111 0
2.92352 -3.1948 20.6147 0
3.64735 -2.68052 19.6277 0
4.21545 -2.84824 20.3454 0
4.75331 -2.95557 21.0619 0
3.81757 -3.76764 21.4152 0
4.21824 -4.10117 21.9099 0
3.4001 -3.43188 21.0957 0
4.33568 -3.42946 21.082 0
5.25099 -3.04841 21.6132 0
5.21444 -3.64812 22.2861 0
4.69258 -4.35634 22.6682 0
5.87321 -3.25442 22.0416 0
6.57365 -3.63287 22.3661 0
7.10986 -4.4355 22.5184 0
2.21712 -5.7255 21.895 0
2.11694 -6.04398 20.8291 0
3.1713 -4.85718 23.0281 0
2.51184 -5.02436 22.8239 0
2.43529 -6.04483 22.5698 0
2.5961 -6.32997 23.2549 0
2.73547 -6.94917 21.9864 0
5.05178 -4.93336 22.9741 0
4.09137 -4.81499 23.1561 0
6.10726 -5.03517 22.6616 0
5.3044 -5.64819 23.1171 0
4.67181 -5.92652 23.7688 0
3.02469 -5.94067 23.8404 0
2.63974 -6.7215 23.9031 0
3.56076 -5.28363 23.5404 0
3.8511 -5.70109 23.9811 0
4.10679 -6.12802 24.4358 0
2.93651 -6.89968 24.5798 0
2.86622 -7.68169 23.4051 0
3.64425 -6.55629 24.9007 0
3.24766 -7.14654 25.179 0
3.84145 -8.0776 24.4902 0
-1.57021 -10.0278 18.3022 0
-1.81252 -10.4152 18.4749 0
-1.22663 -9.02613 18.1331 0
-1.36883 -9.5668 18.0842 0
-1.26947 -9.99247 18.1303 0
-0.961631 -10.0416 18.141 0
-1.19491 -10.4882 18.5693 0
-0.783845 -8.21424 18.2923 0
-0.92674 -8.59735 18.1549 0
-0.590411 -7.31625 18.7411 0
-0.640205 -7.81671 18.4379 0
-0.33607 -8.30867 18.0357 0
0.00412922 -8.32392 17.717 0
-0.0444948 -8.77311 17.7123 0
-0.614317 -9.65695 17.7072 0
-0.511157 -10.1307 18.1104 0
-0.785027 -9.12769 17.892 0
-0.345568 -9.21243 17.7204 0
0.0990817 -9.28637 17.6052 0
-0.057893 -10.2529 18.1363 0
-0.373994 -10.712 18.6093 0
0.498742 -9.26798 17.4546 0
0.270527 -9.82502 17.6572 0
0.402681 -10.3633 18.223 0
0.832621 -10.3683 18.5726 0
0.526777 -10.8594 18.9336 0
-1.17802 -6.37364 19.5157 0
-0.468445 -6.72438 19.194 0
-2.45146 -5.70564 20.0569 0
-1.9705 -6.12131 19.7391 0
-1.05845 -6.20989 19.3289 0
-0.856892 -6.00846 19.1799 0
0.036316 -6.39219 18.5958 0
-3.05895 -4.96488 20.277 0
-2.77775 -5.3304 20.2708 0
-3.38997 -4.58241 20.2533 0
-2.70872 -4.56179 20.0503 0
-2.12394 -4.56787 19.5943 0
-1.46493 -5.56165 19.6879 0
-0.554032 -5.7919 19.1261 0
-2.13857 -5.34253 20.1018 0
-1.85292 -5.01142 19.6992 0
-1.46161 -4.63527 19.2919 0
-0.117166 -5.58658 19.2721 0
0.744094 -5.95402 18.5824 0
-0.592114 -4.96722 19.4926 0
0.348222 -5.3346 19.6289 0
1.4161 -5.51246 19.4561 0
1.14229 -9.93334 18.1598 0
1.2529 -10.3264 19.0433 0
0.697091 -8.75966 17.397 0
0.938164 -9.39009 17.6261 0
1.40461 -9.48413 17.8769 0
1.63111 -8.89847 17.8001 0
1.84069 -9.49707 18.4677 0
-0.00415584 -7.86062 17.8009 0
0.40699 -8.31037 17.5477 0
-0.293656 -7.28904 18.3776 0
0.0408765 -7.2253 18.0066 0
0.389817 -7.0754 17.7609 0
1.40108 -8.25826 17.4296 0
2.02157 -8.15698 17.7225 0
0.866289 -8.28736 17.3582 0
0.887615 -7.73415 17.4439 0
0.968901 -6.86559 17.7267 0
2.01881 -7.35339 18.2181 0
2.48655 -8.01808 18.5678 0
1.50039 -6.61356 18.175 0
1.86797 -6.36179 18.7823 0
2.11409 -6.16762 19.6941 0
1.71676 -10.3971 19.4688 0
1.40241 -10.9081 19.6675 0
2.16469 -9.44899 19.1177 0
2.01191 -9.95621 19.2113 0
2.20989 -10.5032 19.842 0
2.64028 -10.4549 20.3825 0
2.47836 -11.051 20.3896 0
2.8527 -7.76222 19.5121 0
2.51191 -8.70838 19.2024 0
2.62614 -6.83807 20.1067 0
2.98803 -7.43784 20.621 0
3.13117 -7.99855 21.29 0
2.60745 -9.85352 20.4482 0
3.19249 -10.3557 20.9531 0
2.25116 -9.32623 19.9077 0
2.76895 -9.05548 20.7593 0
3.03287 -8.52963 21.9607 0
3.61043 -9.84432 21.7649 0
3.40484 -10.632 21.5263 0
3.5057 -8.79385 22.4413 0
3.79412 -9.10616 22.9521 0
-1.82732 -11.1351 18.7399 0
-2.05655 -10.9261 18.2866 0
-1.16409 -11.3057 18.8739 0
-1.54363 -11.2589 18.8572 0
-1.8892 -12.2049 19.0261 0
-1.57622 -13.2044 19.542 0
-1.80531 -12.9779 19.2446 0
-0.21727 -11.4607 18.9877 0
-0.683864 -11.3656 18.9339 0
0.602834 -11.3989 19.5515 0
0.189626 -11.4302 19.1912 0
-0.184904 -12.0929 19.5792 0
-0.250226 -12.8457 20.0731 0
-0.614128 -12.9889 19.9454 0
-1.26467 -13.2495 19.7112 0
-0.897976 -13.7095 19.7469 0
-1.00058 -12.2256 19.2828 0
-1.00275 -13.1636 19.8412 0
-0.70532 -13.698 20.1737 0
-0.338376 -14.0064 19.9373 0
-0.359462 -13.9155 19.5808 0
-0.384671 -14.1062 20.4359 0
-0.309589 -14.0423 20.1713 0
0.337621 -14.267 19.8438 0
1.12354 -14.536 19.5333 0
1.07341 -14.4782 19.1178 0
1.54131 -11.5806 20.1348 0
1.04146 -11.4889 19.8312 0
1.01106 -12.7423 20.8459 0
0.944948 -14.6872 20.0155 0
1.74856 -14.9135 19.3591 0
-0.192556 -14.0254 20.6153 0
0.0319916 -14.4992 20.6069 0
0.718293 -14.8371 20.5475 0
0.634496 -14.8433 20.9628 0
1.39202 -15.1577 20.5113 0
0.147384 -12.8019 20.2631 0
-0.292226 -13.5024 20.5123 0
0.651792 -12.115 20.025 0
0.56204 -12.7665 20.5403 0
0.405135 -13.3148 21.0857 0
-0.130877 -14.5582 21.3538 0
0.587831 -14.7571 21.4425 0
-0.212784 -14.0359 20.9333 0
0.136399 -13.9345 21.2235 0
2.20355 -15.3539 19.1628 0
2.2604 -15.2701 18.6107 0
2.08398 -15.4974 20.3655 0
2.12846 -15.4762 19.783 0
2.77238 -15.784 18.988 0
3.26606 -16.3236 18.8014 0
3.28582 -16.2092 18.1995 0
2.03055 -15.4665 20.9365 0
3.25765 -16.4581 19.4835 0
3.8083 -16.9036 18.6177 0
2.73266 -15.9137 20.2659 0
4.39455 -17.5369 18.3723 0
4.38324 -17.3576 17.7196 0
5.01686 -18.1735 18.1785 0
5.32277 -18.7672 17.6607 0
-3.02365 -7.42194 25.2035 0
-3.59597 -7.5943 25.588 0
-2.29226 -7.32195 24.5577 0
-2.50855 -7.26428 24.8836 0
-2.65496 -7.68916 25.1316 0
-2.40991 -7.95469 25.0472 0
-2.94164 -8.12193 25.3538 0
-2.35498 -7.53641 23.7871 0
-2.25015 -7.41416 24.2228 0
-2.47603 -7.86496 22.6092 0
-2.4132 -7.6895 23.2533 0
-2.30383 -7.82806 23.6623 0
-2.28733 -8.11909 23.5021 0
-2.15597 -7.98084 23.9976 0
-1.95408 -7.8176 24.7422 0
-2.26371 -8.21138 24.9388 0
-2.05521 -7.5978 24.4872 0
-2.04103 -7.88675 24.3697 0
-2.27926 -8.25903 24.1879 0
-2.48433 -8.57199 24.774 0
-2.63521 -8.631 25.1398 0
-2.48772 -8.62398 24.0092 0
-2.41757 -8.55418 24.3958 0
-2.63657 -8.91518 24.6309 0
-2.65912 -9.21934 24.5161 0
-2.69 -9.2382 24.9098 0
-2.43805 -8.20651 21.1836 0
-2.353 -8.04012 21.9136 0
-2.40617 -9.08382 20.1829 0
-2.38897 -8.49453 20.5849 0
-2.57538 -8.48843 20.9286 0
-2.74676 -8.81487 20.7471 0
-2.64589 -8.57545 21.3953 0
-2.24618 -9.9758 19.2359 0
-2.37342 -9.65009 19.7904 0
-2.20518 -10.382 18.0709 0
-2.09326 -10.2469 18.6267 0
-2.42464 -10.0888 18.8999 0
-2.79702 -9.87023 18.3748 0
-2.82602 -9.75267 19.1656 0
-2.78318 -9.39452 20.353 0
-3.02475 -9.04504 20.5618 0
-2.55428 -9.65946 20.1085 0
-2.80402 -9.76634 19.8679 0
-3.14806 -9.46783 19.4373 0
-3.34692 -9.31706 20.3947 0
-3.12921 -9.0736 21.0143 0
-3.49594 -9.40255 19.1508 0
-3.44513 -9.34748 19.7999 0
-3.74297 -9.30691 20.2368 0
-4.08805 -9.29953 20.0479 0
-3.95759 -9.30249 20.7645 0
-2.66413 -9.28883 24.0474 0
-2.69139 -9.58471 24.3457 0
-2.50973 -8.70853 23.5482 0
-2.62417 -8.97579 23.7844 0
-2.66189 -9.38166 23.5702 0
-2.79879 -9.32959 23.0894 0
-2.77565 -9.72814 23.3444 0
-2.40539 -8.29699 22.8461 0
-2.4347 -8.48516 23.2345 0
-2.4491 -8.17483 22.3762 0
-2.5322 -8.45371 22.128 0
-2.74124 -8.62888 21.8916 0
-2.78928 -9.05072 22.7287 0
-3.06521 -9.19077 22.5365 0
-2.58421 -8.86319 22.9558 0
-2.78301 -8.80215 22.3287 0
-2.93945 -8.82765 21.6707 0
-3.43705 -9.19026 21.9638 0
-3.49478 -9.35823 22.3876 0
-3.33435 -9.0608 21.5278 0
-3.79845 -9.25377 21.4314 0
-4.21505 -9.41813 21.3132 0
-2.74272 -9.96018 24.1809 0
-2.74476 -9.81522 24.7034 0
-3.18405 -9.82065 23.2338 0
-2.81937 -10.0763 23.661 0
-2.96173 -10.2099 24.1124 0
-3.43816 -10.2566 24.085 0
-3.09371 -10.3342 24.5606 0
-4.04946 -9.34223 22.3728 0
-3.60346 -9.51919 22.8181 0
-4.59391 -9.59263 21.1688 0
-4.3746 -9.41419 21.8204 0
-4.508 -9.3892 22.3086 0
-4.86112 -9.59544 22.2024 0
-4.57288 -9.59797 22.7569 0
-3.75768 -10.1846 23.6065 0
-3.86831 -10.3556 24.1004 0
-3.68849 -9.8415 23.2022 0
-4.17418 -9.90821 23.1753 0
-4.57687 -10.0422 23.1508 0
-4.29672 -10.4988 24.0752 0
-3.97366 -10.5206 24.5928 0
-4.92351 -10.2448 23.0719 0
-4.58788 -10.4645 23.5563 0
-4.66069 -10.5773 24.0882 0
-5.03221 -10.6022 24.104 0
-4.72974 -10.6804 24.619 0
-2.32887 -11.6636 18.2318 0
-2.29096 -10.707 17.7887 0
-1.30445 -13.3864 19.2071 0
-2.04909 -12.6872 18.8573 0
-2.26434 -12.4023 18.339 0
-2.12768 -13.0556 18.5052 0
-2.56909 -11.8007 17.8193 0
0.252935 -14.1051 19.0392 0
-0.441411 -13.8019 19.255 0
1.62884 -14.8002 18.3797 0
0.953742 -14.4306 18.6788 0
0.842224 -14.2619 18.3821 0
1.38206 -14.3744 17.7526 0
0.671138 -14.0045 18.1645 0
-1.06565 -13.4673 18.7685 0
-1.48373 -13.2951 18.4076 0
-0.705715 -13.651 19.0081 0
-0.122573 -13.7625 18.5528 0
0.418195 -13.8206 17.9744 0
-0.945408 -13.6027 18.3553 0
-2.02885 -13.1879 18.1318 0
0.933321 -13.8741 17.4473 0
0.100626 -13.6432 17.8744 0
-0.277403 -13.5185 17.8157 0
0.247283 -13.4842 17.3408 0
-0.814094 -13.5885 17.7879 0
2.65684 -15.724 17.8556 0
2.15434 -15.2846 18.0718 0
3.87474 -16.5857 17.4217 0
3.31902 -16.079 17.6432 0
3.21531 -16.0695 17.1378 0
3.93309 -16.0695 16.427 0
3.2245 -15.7282 16.6744 0
4.93891 -17.8045 16.8874 0
4.36497 -17.1898 17.1367 0
5.49037 -19.3089 17.1944 0
5.21637 -18.5062 17.0726 0
5.14644 -18.3365 16.4723 0
5.22049 -18.9112 16.0257 0
4.93072 -18.294 15.8537 0
4.29952 -16.7197 16.2104 0
4.31384 -16.3762 15.7596 0
4.39025 -17.0029 16.6233 0
4.77744 -17.3209 15.9138 0
4.82985 -18.0294 15.4213 0
4.55979 -16.7391 15.2786 0
4.22154 -16.068 15.4837 0
4.82299 -18.7545 14.9312 0
4.65629 -17.845 15.0338 0
4.48901 -17.6171 14.743 0
4.45121 -18.4231 14.1894 0
4.35461 -17.2904 14.5647 0
1.10864 -13.7649 16.9046 0
0.691045 -13.6004 16.9031 0
1.72737 -14.2008 16.9849 0
1.44278 -13.9891 16.9428 0
1.9551 -14.1149 16.4316 0
2.71885 -14.5228 15.9297 0
2.39559 -14.3199 15.9201 0
2.03306 -14.7661 17.3472 0
1.93417 -14.4363 17.1087 0
2.01907 -15.1953 17.6733 0
2.57253 -15.3007 17.0032 0
3.2326 -15.3395 16.3259 0
2.96158 -14.7258 15.9659 0
3.48742 -14.9155 15.4279 0
2.4672 -14.5293 16.5038 0
3.15695 -14.9884 16.0911 0
3.86833 -15.41 15.6888 0
3.92922 -15.525 15.1543 0
3.65348 -15.3365 14.9559 0
4.07377 -15.7908 15.3056 0
4.25415 -16.1666 14.9016 0
3.9557 -17.0912 14.5271 0
1.04234 -13.8517 16.4905 0
0.110831 -13.509 16.958 0
2.67923 -14.691 15.3522 0
1.91765 -14.2192 15.964 0
1.38553 -14.123 16.0584 0
1.63619 -14.4637 15.4976 0
0.785743 -14.0092 16.1399 0
3.59074 -15.8963 14.4444 0
3.29734 -15.1989 14.8232 0
3.64385 -18.0788 14.0829 0
3.64734 -16.9192 14.2912 0
3.36789 -16.7392 14.0381 0
3.10183 -17.6641 13.7877 0
3.15952 -16.3971 13.8658 0
2.41472 -14.9237 14.7272 0
1.88513 -14.7684 14.9326 0
2.89725 -15.0696 14.7669 0
2.86037 -15.5708 14.2102 0
2.8632 -15.9876 13.5871 0
1.97315 -15.0378 14.2882 0
1.31175 -14.5771 15.1738 0
2.58501 -16.9659 13.3791 0
2.46145 -15.5336 13.2521 0
1.83528 -15.5315 13.7801 0
1.31573 -16.451 13.7255 0
1.19004 -15.5773 14.4538 0
-5.34228 -10.4839 23.5854 0
-5.39387 -10.6127 24.1168 0
-5.23677 -9.99833 22.5866 0
-5.27933 -10.2691 23.0753 0
-5.61973 -10.2633 23.0878 0
-5.74475 -10.2342 22.4972 0
-5.83133 -10.418 23.0401 0
-5.05959 -9.78823 21.5635 0
-5.17676 -9.80401 22.1058 0
-4.6636 -9.64037 20.4873 0
-4.91436 -9.7593 21.024 0
-5.21093 -9.82204 20.9108 0
-5.165 -9.91813 20.259 0
-5.47297 -9.87357 20.7899 0
-5.70551 -10.0304 21.922 0
-5.89062 -10.1778 21.8496 0
-5.47149 -9.91993 22.0094 0
-5.63985 -9.8961 21.3425 0
-5.69907 -9.92292 20.6737 0
-6.00424 -10.1613 21.1483 0
-6.06007 -10.3248 21.7956 0
-5.48349 -10.3406 20.0219 0
-5.82529 -10.1776 20.573 0
-5.90948 -10.44 20.4607 0
-5.70715 -10.8726 19.7634 0
-6.01872 -10.7178 20.3613 0
-4.11283 -9.39563 19.3618 0
-4.39926 -9.51328 19.9366 0
-3.45488 -9.58515 18.4154 0
-3.79983 -9.45323 18.8969 0
-4.07464 -9.50737 18.6344 0
-3.85968 -10.0861 18.0817 0
-4.26681 -9.88633 18.4901 0
-2.78798 -10.0062 17.6511 0
-3.07639 -9.75727 17.9067 0
-2.55424 -10.3152 17.6107 0
-2.731 -10.7188 17.4692 0
-2.86715 -11.1607 17.341 0
-3.42476 -10.396 17.6235 0
-3.58426 -10.8442 17.5879 0
-3.27668 -9.97633 17.7122 0
-3.13181 -10.7648 17.4638 0
-2.73476 -11.8876 17.5835 0
-2.96594 -11.9606 17.5591 0
-3.45163 -11.4177 17.6667 0
-2.57302 -12.6737 17.8817 0
-1.99735 -13.2057 17.908 0
-1.52607 -13.6666 17.8716 0
-5.33106 -11.1042 19.1708 0
-5.30963 -11.6088 19.0481 0
-5.15089 -10.4998 19.4456 0
-5.27809 -10.7603 19.2954 0
-4.92567 -11.3952 18.5542 0
-4.31425 -11.7162 18.2914 0
-4.13398 -12.2775 18.1152 0
-4.85681 -9.93583 19.7119 0
-5.01272 -10.2331 19.5809 0
-4.64521 -9.73741 19.8345 0
-4.5655 -9.90963 19.1167 0
-4.40375 -10.3283 18.3604 0
-4.41864 -11.226 18.2709 0
-3.60423 -12.1142 18.0722 0
-4.85122 -10.6449 18.8213 0
-4.50823 -10.77 18.2354 0
-3.97933 -11.0222 17.8938 0
-2.88132 -12.7805 17.7013 0
-2.47394 -13.4778 17.5698 0
-3.28051 -12.0555 17.808 0
-2.17981 -13.3305 17.7096 0
-1.00615 -13.5874 17.4276 0
-4.68633 -12.5609 18.1989 0
-5.28571 -12.2439 18.8071 0
-3.0532 -13.3818 17.4451 0
-3.89601 -12.851 17.693 0
-3.6595 -13.3655 17.4062 0
-2.38123 -14.1427 16.991 0
-3.4238 -13.8008 17.2026 0
-1.23484 -13.537 17.0817 0
-2.06785 -13.7964 17.2958 0
-0.54807 -13.5161 17.028 0
-0.177812 -13.6193 16.64 0
0.120305 -13.865 16.2144 0
-1.4025 -14.1422 16.6715 0
-1.26951 -14.3272 16.1531 0
-1.68656 -13.9634 17.0192 0
-0.629148 -13.8134 16.3433 0
0.351694 -14.1417 15.7339 0
-0.146991 -14.447 15.6074 0
-1.14659 -14.5997 15.7028 0
0.552765 -14.4168 15.2104 0
0.933409 -14.9856 15.3057 0
0.730386 -15.6681 15.3193 0
-5.57233 -10.824 24.0736 0
-5.24452 -10.9924 24.5773 0
-6.02209 -10.6093 22.9907 0
-5.92247 -10.6603 23.5562 0
-5.76302 -11.0609 24.0285 0
-5.96844 -11.3319 23.9947 0
-5.60069 -11.4898 24.5109 0
-6.18283 -10.6091 21.748 0
-6.10799 -10.562 22.4109 0
-6.15812 -11.0927 20.2945 0
-6.25131 -10.7092 21.022 0
-6.28799 -10.9289 21.7313 0
-6.40924 -11.3358 21.7356 0
-6.35884 -11.2041 22.3604 0
-6.32703 -11.1724 23.4809 0
-6.15162 -11.6232 23.9682 0
-6.224 -10.8466 22.9562 0
-6.3879 -11.1492 22.9323 0
-6.46002 -11.5377 22.9158 0
-6.22638 -11.9738 23.939 0
-5.96667 -12.0753 24.4519 0
-6.45947 -12.0097 22.8953 0
-6.40251 -11.9329 23.4297 0
-6.23679 -12.3967 23.8898 0
-6.34683 -12.8621 23.8108 0
-6.17548 -12.8295 24.3364 0
-5.17625 -12.9842 18.4626 0
-5.78446 -11.9476 19.4353 0
-3.20858 -14.2746 17.139 0
-4.33979 -13.7403 17.6718 0
-5.16687 -13.7681 18.2555 0
-5.07145 -14.4837 18.1894 0
-5.77736 -13.7772 19.0081 0
-0.862531 -15.3165 16.045 0
-2.07767 -14.7107 16.3461 0
0.467773 -16.3674 15.6197 0
-0.00287231 -15.8231 16.0031 0
-0.921901 -15.9454 16.4279 0
-1.08209 -16.2793 16.8695 0
-1.86871 -15.9077 17.213 0
-3.97155 -15.0172 17.8982 0
-4.64681 -15.1793 18.5513 0
-2.94972 -14.8001 17.2954 0
-2.78573 -15.4458 17.6282 0
-2.66024 -16.0919 18.0022 0
-4.48549 -15.9391 18.8316 0
-5.21408 -15.3175 19.2103 0
-2.61162 -16.7214 18.334 0
-3.42665 -16.3146 18.669 0
-4.15997 -16.5448 19.0994 0
-3.83296 -17.1918 19.3324 0
-4.79956 -16.7513 19.4921 0
-6.25216 -13.1157 23.2257 0
-6.17627 -13.5377 23.6478 0
-6.33379 -12.3382 22.2728 0
-6.31504 -12.7058 22.7806 0
-6.10379 -13.4968 22.5762 0
-5.97014 -14.0584 21.8827 0
-5.97874 -14.3473 22.3728 0
-6.26878 -11.8665 21.0457 0
-6.31696 -12.0354 21.7055 0
-6.12679 -11.7869 20.2691 0
-6.00887 -12.7396 20.1592 0
-5.86581 -13.5952 19.9735 0
-5.96863 -13.7709 21.3483 0
-5.82166 -14.6673 21.165 0
-6.12839 -12.8564 21.5502 0
-5.92682 -13.6149 20.7231 0
-5.64817 -14.4612 19.9073 0
-5.62468 -15.3834 20.4925 0
-5.74047 -15.5179 21.019 0
-5.45513 -15.3109 19.9171 0
-5.41692 -16.1534 19.879 0
-5.35965 -16.9666 19.8808 0
-6.06397 -14.2225 23.459 0
-6.15072 -13.8948 24.0512 0
-5.88584 -15.1576 22.1886 0
-5.97696 -14.6673 22.8352 0
-5.9414 -14.9953 23.2463 0
-5.85474 -15.7419 23.0519 0
-5.90359 -15.3336 23.6098 0
-5.58986 -16.2968 20.961 0
-5.79519 -15.7165 21.5424 0
-4.9119 -17.6294 20.0521 0
-5.4394 -17.0017 20.405 0
-5.36929 -17.0118 20.9592 0
-5.08163 -17.7101 20.9764 0
-5.42538 -17.1309 21.4373 0
-5.82393 -16.1751 22.482 0
-5.76323 -16.4196 22.8523 0
-5.8205 -15.9253 22.032 0
-5.66277 -16.6303 21.9447 0
-5.50442 -17.265 21.853 0
-5.61337 -17.0445 22.6989 0
-5.69951 -16.6937 23.1737 0
-5.23325 -17.8487 21.8227 0
-5.51293 -17.4307 22.2391 0
-5.5739 -17.7032 22.4807 0
-5.36949 -18.2068 22.362 0
-5.63396 -17.9964 22.6578 0
-0.218962 -4.2799 28.9427 0
0.477184 -3.83607 29.19 0
-1.70841 -4.93433 28.4554 0
-0.937601 -4.76202 28.6265 0
-3.02225 -5.47961 27.9527 0
-2.54472 -5.08117 28.3123 0
-1.47389 -5.11371 28.9531 0
-4.0343 -6.32878 27.206 0
-3.57627 -5.97124 27.5126 0
-4.15386 -7.03217 26.5148 0
-4.21479 -6.64402 26.8732 0
-3.82641 -6.55432 27.61 0
-3.68512 -6.84824 28.044 0
-3.26294 -6.45268 28.3717 0
-1.99778 -5.59172 29.1571 0
-2.95715 -5.72376 28.3711 0
-2.69252 -5.9848 28.7751 0
-2.42742 -6.24532 29.1986 0
-1.27626 -6.06576 29.925 0
-3.57949 -7.83688 25.9138 0
-3.95646 -7.48783 26.1401 0
-2.97024 -8.38588 25.6663 0
-3.21195 -8.11717 25.7889 0
-3.57734 -8.07584 26.2544 0
-3.50529 -8.25535 26.7346 0
-3.76327 -7.84478 27.0794 0
-2.6431 -8.9045 25.4433 0
-2.82419 -8.65446 25.5501 0
-2.48647 -9.45537 25.2196 0
-2.4656 -9.16264 25.3282 0
-2.5431 -9.15437 25.7587 0
-2.37916 -9.36088 26.0926 0
-2.61271 -9.10962 26.2176 0
-3.21122 -8.57837 26.5307 0
-3.39248 -8.42354 27.2464 0
-2.98786 -8.644 25.9963 0
-2.9294 -8.85808 26.3885 0
-2.75037 -9.04875 26.7558 0
-3.18159 -8.54042 27.768 0
-3.4426 -8.17098 28.1573 0
-2.52577 -9.2123 27.1216 0
-2.88837 -8.91669 27.375 0
-2.89386 -8.61909 28.2943 0
-2.58689 -8.78118 28.7213 0
-2.80489 -8.52598 29.197 0
-2.56686 -9.93958 25.1199 0
-2.49692 -9.72942 25.1331 0
-3.07812 -10.4301 25.0293 0
-2.72468 -10.1882 25.0511 0
-2.35692 -10.0626 25.5155 0
-2.13797 -10.2643 25.8657 0
-2.05945 -10.0474 25.8767 0
-3.96977 -10.5925 25.0958 0
-3.54202 -10.5342 25.0506 0
-4.73056 -10.7315 25.1406 0
-4.36193 -10.657 25.1262 0
-3.94193 -10.6384 25.5989 0
-3.93157 -10.7778 26.0444 0
-3.4822 -10.7599 25.9702 0
-2.42309 -10.5711 25.8474 0
-1.99695 -10.5436 26.1708 0
-3.01972 -10.4973 25.4995 0
-2.95583 -10.7054 25.895 0
-2.89623 -11.0731 26.2091 0
-1.94493 -10.8683 26.4792 0
-1.65944 -10.5282 26.485 0
-2.88214 -11.4006 26.5451 0
-2.27872 -11.319 26.4505 0
-1.92634 -11.134 26.8175 0
-1.95134 -11.3954 27.1733 0
-1.72616 -10.993 27.2117 0
-2.19654 -9.09124 28.2304 0
-2.36941 -9.14033 29.0526 0
-2.19981 -9.4739 26.9329 0
-2.2071 -9.29816 27.4942 0
-1.92224 -9.41863 27.8684 0
-1.82882 -9.78541 27.6654 0
-1.70518 -9.74785 28.2038 0
-2.15158 -9.60177 25.9761 0
-2.1629 -9.54609 26.4328 0
-2.22334 -9.65669 25.5364 0
-2.01107 -9.8503 25.8847 0
-1.88751 -10.0572 26.2305 0
-1.8783 -9.94287 27.1178 0
-1.74446 -10.1145 27.49 0
-1.99347 -9.74823 26.7736 0
-1.87531 -10.0133 26.6674 0
-1.75376 -10.264 26.5732 0
