#!ascii - generated by CreateLabelFiles project 
2306 4347
-6.79015 50.6145 29.8946 0
-2.12269 87.736 23.7988 0
-2.70869 84.2345 24.9219 0
-2.14716 80.0886 25.5587 0
-0.343443 79.5701 26.5573 0
1.0419 78.0205 26.4568 0
0.774829 77.3799 24.3086 0
3.13149 77.928 24.5074 0
5.2065 76.7553 22.9908 0
4.60427 75.0482 22.4694 0
6.73452 74.8661 22.4997 0
10.4939 74.7213 23.2676 0
10.7955 73.3305 23.1741 0
8.90941 74.6308 22.8636 0
7.98754 73.0836 21.7241 0
9.8962 71.722 22.5902 0
10.6155 73.3786 24.517 0
6.05986 71.4149 21.5808 0
8.36441 71.8827 21.789 0
7.93623 71.3617 22.6975 0
5.95668 70.2019 23.9179 0
7.27655 71.4757 24.4124 0
4.21621 69.1126 23.7621 0
5.1606 68.5908 25.0687 0
4.49096 71.1268 21.205 0
4.24493 69.8969 21.8556 0
3.10337 67.6235 23.3731 0
2.38624 66.5436 22.425 0
3.15216 65.6903 24.4159 0
2.859 75.2314 21.9181 0
3.65832 72.8578 22.287 0
-1.36385 77.3103 24.1148 0
1.13735 77.0914 22.2813 0
1.16719 75.694 21.179 0
-0.049812 75.6711 20.4559 0
0.660292 73.2333 20.4906 0
1.93875 68.6887 20.7914 0
2.32823 66.3243 20.993 0
2.82387 71.1363 20.8633 0
1.37519 70.7715 20.1094 0
0.235322 70.488 19.4688 0
2.5424 66.3459 19.0895 0
3.78922 65.2556 20.45 0
0.300382 71.092 18.3344 0
1.311 68.0723 17.8759 0
2.78823 67.1068 17.3248 0
2.91993 68.3014 16.457 0
4.38161 66.9068 17.5718 0
-3.4041 80.7958 24.5964 0
-3.02459 78.9065 24.9556 0
-3.26929 84.4596 23.6282 0
-3.65202 82.7004 24.3932 0
-4.6245 81.4995 23.8027 0
-5.21912 82.0365 22.6502 0
-5.36815 80.4561 23.0909 0
-2.74897 87.5282 22.4719 0
-2.85873 86.0693 23.0283 0
-3.0215 89.9808 21.758 0
-3.08275 88.851 22.2829 0
-3.7155 87.2501 21.3009 0
-4.88179 86.704 20.1828 0
-4.74491 85.8219 20.6132 0
-4.95912 83.4569 21.9916 0
-5.62206 82.3 21.4161 0
-3.94225 84.6642 22.4724 0
-4.64934 84.7632 21.2602 0
-5.31559 84.5527 19.7293 0
-5.717 82.4192 19.9793 0
-5.68357 81.1606 20.7015 0
-6.06714 84.2091 18.5125 0
-5.81805 83.3875 18.9746 0
-6.63259 82.1836 18.6582 0
-6.63801 81.7725 17.4189 0
-5.69884 81.2434 18.2113 0
1.91494 71.5839 17.0357 0
2.99014 70.4724 16.6751 0
-0.834712 73.8746 18.2618 0
0.74764 72.6488 17.5683 0
0.544003 74.5075 16.9835 0
-0.586052 77.3452 17.2008 0
0.649021 76.3771 16.4143 0
-2.33242 76.7319 21.8967 0
-0.776474 75.8519 19.4107 0
-3.18109 77.6558 23.9146 0
-4.69427 78.4668 23.2593 0
-5.58939 79.2299 22.0376 0
-2.23581 77.9586 18.4507 0
-2.21185 78.7972 18.7213 0
-1.3363 76.6752 18.8768 0
-4.84527 77.6027 19.9761 0
-5.66651 79.4805 20.6095 0
-3.59108 79.0772 19.802 0
-1.97178 79.6551 19.0176 0
-5.2592 79.6689 19.6307 0
-4.85656 79.8638 18.8442 0
-4.27459 80.5533 18.4566 0
3.15523 72.6575 17.0427 0
4.35795 69.3407 16.3525 0
0.93687 78.0301 16.5284 0
1.91403 75.616 16.5372 0
-1.50977 80.532 19.1363 0
-0.41202 79.7401 17.6012 0
-3.67907 81.4906 17.9813 0
-2.88885 81.3232 19.4165 0
-0.992896 81.3977 19.261 0
-0.572582 82.5001 19.5579 0
1.30909 79.4819 16.7912 0
-4.19269 91.8792 20.9614 0
-3.66369 90.9104 21.6331 0
-4.1005 94.3189 18.571 0
-4.64636 91.5356 19.4612 0
-4.91629 91.3747 17.9999 0
-5.05316 89.995 18.8955 0
-1.01815 95.0598 17.123 0
-3.95829 92.6798 17.7343 0
-5.07569 91.227 17.0036 0
-3.18541 94.0969 18.0198 0
-2.40672 93.7184 17.3815 0
-1.76151 93.1139 17.0204 0
-4.86941 90.7624 16.0655 0
-5.96211 89.5402 16.4732 0
-1.60838 92.6887 16.5866 0
-3.39068 91.8588 16.0769 0
-4.81835 90.5227 15.2773 0
-5.12601 90.7786 14.3389 0
-6.28604 89.5798 14.6133 0
-3.89835 91.9393 14.0745 0
-4.88376 90.2902 13.4234 0
-0.27361 93.8398 16.3916 0
-1.88893 92.5564 15.1996 0
-2.19868 92.5421 13.883 0
-1.40148 93.4407 14.0258 0
-2.45403 92.1308 12.7351 0
-4.44082 89.5961 12.3704 0
-5.55505 88.7491 12.6462 0
-2.91783 91.5087 11.6433 0
-3.5496 90.5163 11.9817 0
-4.49985 89.0841 11.3243 0
-4.70985 88.9565 9.78584 0
-4.48019 88.243 10.3668 0
-3.08403 93.0867 11.2663 0
-4.85006 90.2587 9.3509 0
-4.87173 89.2614 8.0568 0
-4.0629 91.5846 10.3226 0
-5.3279 91.4595 9.08099 0
-6.30126 91.3791 8.03832 0
-4.23655 90.4582 6.71898 0
-3.55464 89.4249 6.99076 0
-5.43366 91.1966 6.89874 0
-1.72284 83.298 18.3869 0
-4.63891 81.9959 16.6911 0
-3.09252 82.5903 17.452 0
-2.53134 83.7896 17.0749 0
-3.27807 84.3448 16.0106 0
-2.05898 85.0719 16.7555 0
-7.25853 82.4461 17.0435 0
-6.07974 82.0835 16.5809 0
-6.44127 84.8821 18.1122 0
-7.22731 83.5462 17.6635 0
-7.87452 83.3142 16.8645 0
-7.90114 84.4446 16.3446 0
-7.27691 83.9146 15.871 0
-4.76384 87.6861 19.7369 0
-5.99569 86.235 19.0965 0
-3.88209 89.4106 20.5773 0
-4.86263 88.7998 19.3596 0
-5.94065 88.4202 18.1699 0
-7.79676 85.6805 16.9376 0
-7.95334 85.9449 15.6462 0
-6.93534 85.8702 17.9536 0
-7.04044 87.0357 17.5966 0
-6.85322 88.4177 17.0227 0
-7.71074 87.2417 15.0729 0
-7.85702 86.3629 14.4777 0
-6.92791 88.1653 15.85 0
-7.18675 88.3516 14.8053 0
-7.13849 88.2785 13.764 0
-3.33105 85.5503 14.5296 0
-2.21547 85.6247 13.8133 0
-2.50858 85.2449 12.3989 0
-3.9425 85.2012 12.1058 0
-2.90316 85.4797 11.285 0
-4.70077 83.3945 15.1416 0
-3.95595 84.7457 14.9231 0
-5.37961 82.5947 15.7513 0
-6.01417 83.5237 15.3338 0
-6.63552 84.5559 14.9592 0
-5.00794 85.3203 13.0657 0
-5.4467 85.5615 12.1147 0
-4.60986 84.9456 14.2009 0
-5.89058 84.742 13.9229 0
-6.97049 85.4056 14.2127 0
-6.71518 86.2715 12.4013 0
-5.39529 86.2838 11.5734 0
-7.56387 86.1717 13.3488 0
-7.30218 86.9365 12.9253 0
-6.49537 87.7809 12.7656 0
-3.00228 86.2266 10.3206 0
-1.57335 86.4826 10.3649 0
-5.1002 86.8671 11.1619 0
-4.12701 86.3998 10.7363 0
-5.79219 87.57 11.7033 0
-4.75777 87.573 10.7604 0
-3.86171 87.4601 9.28546 0
-2.00817 88.4172 8.12843 0
-3.02402 86.7489 9.48869 0
-3.14491 87.2293 8.35742 0
-3.32075 88.3208 7.59477 0
-2.38465 90.1772 6.66428 0
4.97285 66.8814 26.3327 0
5.26667 67.6157 26.1146 0
4.57568 64.6276 24.2223 0
4.69869 65.8849 25.8573 0
6.17015 65.5475 26.7471 0
7.45078 65.0318 27.2236 0
5.91405 64.8238 27.8614 0
5.47024 65.1864 20.3057 0
5.11168 64.7171 21.8753 0
5.90103 66.8156 17.6378 0
5.81423 66.3841 19.0295 0
7.33998 65.6863 20.4433 0
7.5114 64.871 25.0405 0
8.40813 64.7408 26.0977 0
6.38009 64.6803 23.4375 0
8.0429 64.6215 22.8608 0
10.68 72.0644 28.0684 0
8.43595 69.0915 32.4628 0
8.56493 73.7745 26.4769 0
9.68623 73.0347 27.3235 0
5.77824 71.3586 26.0296 0
7.24362 72.8821 25.8955 0
6.27743 73.3184 27.5345 0
4.26108 71.3856 27.6928 0
5.4549 71.5781 28.7854 0
7.47555 69.8832 31.144 0
6.5158 68.3065 33.1068 0
8.66468 71.6903 29.3727 0
6.58714 70.7944 29.812 0
4.25771 70.1339 30.0613 0
4.22597 68.3865 33.328 0
5.46581 66.8551 34.1668 0
2.04608 69.7035 29.4951 0
2.93742 69.0767 31.4658 0
2.24378 67.4315 31.903 0
0.825233 66.5129 29.7715 0
1.69253 65.6299 31.6773 0
4.4918 62.8836 34.6569 0
4.08688 63.3343 33.3725 0
2.80677 62.0925 33.1259 0
4.78824 65.1139 34.164 0
2.81476 64.4174 32.8025 0
1.17334 63.9585 30.9592 0
0.612335 61.6518 31.6422 0
0.919982 61.0006 32.8112 0
-1.20034 63.5912 29.6937 0
0.220408 62.5671 30.2463 0
-1.83682 61.2016 30.4761 0
-4.14082 59.9595 29.1947 0
-3.85838 59.5537 30.2344 0
-4.11315 60.0244 32.2653 0
-6.17165 61.0717 32.1706 0
-1.29567 60.0584 32.4008 0
-3.85528 59.6303 31.0845 0
-6.23883 58.697 29.8999 0
-8.20341 60.1139 31.7282 0
-7.90137 61.2611 32.8842 0
-8.56065 57.744 29.1291 0
-8.72668 58.7121 30.3047 0
-9.76716 58.2219 31.8793 0
-9.79859 55.745 32.087 0
-9.68286 57.4769 33.1957 0
-8.79999 60.6015 35.725 0
-8.86459 60.9816 34.3269 0
-9.73136 59.0717 34.4518 0
-9.27174 56.9788 34.179 0
-8.76844 58.634 36.7019 0
-8.11217 54.7387 34.005 0
-8.58937 56.7821 35.187 0
-8.03284 56.836 36.1626 0
-6.28609 54.8276 34.7742 0
-7.27212 57.0115 37.0325 0
3.98853 66.5797 26.9899 0
5.1765 68.5702 26.2037 0
4.85452 63.8904 28.4002 0
3.91153 64.8581 28.0401 0
2.83115 66.1053 27.4992 0
2.02046 65.5183 26.7506 0
1.99248 67.156 26.2638 0
6.18736 63.9252 27.974 0
4.72517 62.9366 24.956 0
2.41813 64.0489 27.0358 0
1.22704 65.0327 25.5584 0
3.9674 63.5928 28.1257 0
3.38776 63.3649 26.437 0
2.77308 63.0094 24.4303 0
0.285168 64.5507 24.2069 0
-0.154403 65.7687 24.2675 0
2.25635 62.6122 22.0926 0
0.994409 63.5114 23.4653 0
-0.535609 63.9758 22.621 0
-1.14179 63.1587 20.8836 0
-1.94287 64.0191 21.7874 0
-0.0774349 62.2337 19.8363 0
-1.68898 62.0673 19.6439 0
3.7307 62.1537 21.0336 0
1.86546 62.4243 20.0276 0
-5.6066 53.2596 33.1266 0
-4.11683 53.2988 33.0899 0
-8.22558 53.3719 32.6622 0
-6.91754 53.4935 32.8598 0
-5.24486 52.3399 31.8684 0
-5.17216 51.3572 30.9563 0
-10.2099 54.2491 30.7017 0
-9.18993 53.691 31.9474 0
-8.3088 57.5031 28.1939 0
-10.3197 55.6739 29.0865 0
-10.0198 53.758 29.6119 0
-9.91802 53.5261 28.5306 0
-8.92454 52.3732 29.6898 0
-4.66182 60.8535 27.9577 0
-6.21937 59.1757 27.8788 0
-2.15126 64.407 28.108 0
-3.374 62.7443 28.0752 0
-5.15084 61.7672 26.8537 0
-5.75782 62.7482 25.6431 0
-6.70356 60.7428 25.8719 0
-9.52629 55.9871 27.0969 0
-10.0359 53.5202 27.256 0
-8.18293 58.1174 27.3319 0
-7.64326 58.5553 26.1465 0
-8.08988 59.3641 25.086 0
-9.54104 54.0952 25.5122 0
-9.16347 51.5177 27.3253 0
-8.07871 60.0262 24.1053 0
-8.59437 57.4003 24.8802 0
-0.664852 67.5868 28.3373 0
-1.27308 65.9443 28.2284 0
0.766539 70.2478 27.9608 0
-0.0384749 69.0908 28.2718 0
-2.034 68.2372 27.2625 0
-2.90834 68.3251 25.652 0
-3.77745 67.3241 25.5386 0
3.28982 70.4296 26.6369 0
2.02522 70.6493 27.3269 0
4.31739 69.8764 26.4586 0
2.39137 68.9545 25.9806 0
0.934452 68.1679 25.2567 0
-1.93402 69.0569 25.3499 0
-3.27892 67.9722 23.9552 0
-0.258483 70.1412 26.4864 0
-0.844946 69.4181 25.1076 0
-0.460929 67.1823 24.6153 0
-2.95046 66.7587 22.9191 0
-3.98466 66.4584 22.5669 0
-1.64968 66.4342 23.459 0
-2.57894 65.3712 22.2637 0
-3.23294 63.9207 21.2192 0
-7.50909 62.5924 23.6173 0
-4.89306 64.3728 25.4492 0
-6.41401 63.6258 24.5714 0
-3.3365 65.2426 26.9039 0
-4.42737 65.9881 25.4748 0
-4.9141 65.9309 24.1787 0
-6.77515 63.7944 21.9332 0
-6.92534 64.1168 23.2187 0
-5.9863 64.9343 22.788 0
-4.92584 65.6406 22.6369 0
-5.27714 63.4414 20.6739 0
-4.76387 65.0047 21.3133 0
-4.36456 63.6864 20.8181 0
-3.80746 62.5394 20.1651 0
-6.66994 51.4691 30.8411 0
-7.97642 52.5606 31.3998 0
-7.93102 51.8757 30.3152 0
-8.02389 51.0778 29.4354 0
-8.25302 50.5409 28.5025 0
-2.13958 88.5467 23.4377 0
-1.57605 87.8614 24.2883 0
-2.22443 86.893 24.119 0
-1.74736 87.0211 24.7286 0
-2.52513 85.1295 24.5731 0
-2.02606 85.1968 25.3215 0
-2.16938 84.1852 25.6708 0
-2.78967 83.2675 25.1977 0
-2.19909 83.0799 25.9357 0
-1.93207 82.0061 25.886 0
-0.731832 80.6715 26.3709 0
-2.35681 81.1738 25.2901 0
-1.59529 80.9244 25.8808 0
-1.28119 79.8315 26.087 0
-1.80485 79.0749 25.6881 0
-0.840286 78.8199 26.1713 0
2.15392 78.3548 26.7725 0
0.210844 78.7258 26.6544 0
-0.125535 78.0129 25.9981 0
11.5123 74.0787 24.7089 0
6.42072 77.3846 24.4024 0
2.07287 77.9928 25.5437 0
-0.366521 77.5477 25.0882 0
0.855895 77.6234 25.4909 0
1.97142 77.6576 24.3874 0
2.03666 77.1822 23.2448 0
3.16054 77.2797 23.3824 0
6.24545 76.6457 23.4403 0
4.29173 78.072 24.6916 0
4.30547 77.4868 23.5453 0
4.16429 76.8979 22.6183 0
6.00425 75.8776 22.7112 0
7.09309 75.7243 23.005 0
4.01346 76.1933 22.0753 0
4.96066 76.0241 22.4092 0
5.54625 74.9643 22.8047 0
5.05471 73.9526 22.7287 0
6.18473 73.9465 22.3623 0
11.1521 74.0476 23.6431 0
11.1232 73.7263 24.228 0
10.8934 74.7088 23.9149 0
10.672 74.0582 23.0201 0
10.3437 73.9612 22.2478 0
10.4211 73.1441 22.4698 0
8.34324 76.4796 24.291 0
9.82721 74.6635 22.9491 0
9.63975 73.9071 21.8852 0
9.90835 75.4573 24.1327 0
9.10598 75.4149 24.0159 0
8.14646 75.5283 23.5712 0
8.60459 73.8764 21.9092 0
9.13597 73.1729 21.7023 0
7.86845 74.7089 22.5963 0
7.43723 73.8515 22.0341 0
6.69124 72.9596 21.7785 0
10.7661 73.4235 23.7654 0
11.0091 73.604 25.0198 0
10.0231 72.2096 22.2308 0
10.4664 72.386 22.8356 0
10.3387 72.5289 23.4214 0
9.44696 72.1836 23.2238 0
9.81962 73.0796 24.2431 0
8.48771 72.4023 21.5576 0
9.38881 72.3415 21.8316 0
5.97239 72.1102 21.5451 0
7.08618 72.2536 21.6227 0
7.26192 71.5599 21.6393 0
6.022 70.8517 21.8592 0
7.06029 71.1308 21.9567 0
8.86695 71.6249 22.5502 0
8.47153 71.955 23.2459 0
9.208 71.7488 22.1402 0
8.16594 71.446 22.073 0
6.91312 70.8477 22.6225 0
7.71542 71.4568 23.5759 0
8.08142 72.0259 24.1334 0
5.67456 70.3549 23.3343 0
6.78961 70.8797 23.3639 0
6.91571 70.8839 24.0255 0
6.14225 70.0796 24.5077 0
6.66267 70.7606 24.6635 0
5.33932 69.4601 24.4023 0
5.59999 69.1242 24.9677 0
4.88175 69.9248 23.0479 0
5.04994 69.635 23.8522 0
4.53855 68.8634 24.4299 0
3.8529 68.1128 24.4926 0
4.43758 67.8996 25.1592 0
5.25062 70.6412 21.6 0
5.0175 70.2228 22.1844 0
4.98736 72.0058 21.7192 0
5.34374 71.2387 21.2957 0
4.47229 70.4436 21.3963 0
3.6918 70.2621 21.2433 0
3.49109 69.6202 21.6673 0
3.58755 68.4463 23.5666 0
3.33115 67.2632 24.365 0
4.1459 69.481 22.7294 0
3.6188 68.8066 22.5057 0
2.91096 68.3332 22.4584 0
2.96461 66.4923 24.0178 0
3.27995 66.2864 24.9415 0
2.49219 67.8671 21.8792 0
2.75505 66.9849 22.96 0
2.6344 65.7864 23.5394 0
2.65229 65.7504 22.7394 0
3.24656 65.161 23.537 0
4.19772 73.9743 22.4358 0
4.51085 72.8681 22.4527 0
3.05039 76.3015 21.9666 0
3.7696 75.129 22.1147 0
3.40682 74.0409 22.0217 0
2.62331 74.2479 21.5854 0
2.99616 72.9866 21.707 0
0.985957 77.3382 23.1458 0
2.11035 76.9255 22.4329 0
-1.45831 77.6171 24.9533 0
-0.309544 77.3569 24.2154 0
-0.0462206 77.3954 23.0713 0
-1.06144 77.1944 23.0913 0
0.234144 77.2061 22.0794 0
2.00976 75.5425 21.5307 0
1.75217 74.4554 21.2135 0
2.12682 76.4574 21.8187 0
1.30223 76.6269 21.4987 0
0.468507 76.711 21.189 0
1.01 74.5485 20.8429 0
1.48901 73.1675 20.8559 0
-0.284796 76.5449 20.9974 0
0.59653 75.759 20.7942 0
0.366827 74.5401 20.449 0
-0.274584 74.5293 20.0101 0
0.0186198 73.2137 20.0914 0
2.34904 66.5087 21.7312 0
2.88519 65.776 21.7565 0
2.34141 68.944 21.1785 0
2.08913 67.4922 21.3317 0
1.92121 67.3727 20.7817 0
1.48135 68.4473 20.2099 0
1.8623 67.2193 20.0718 0
3.65103 71.1712 21.003 0
2.80085 70.1934 21.1525 0
4.00132 71.9362 21.897 0
3.23954 72.013 21.5502 0
2.59377 72.0588 20.9775 0
1.62513 69.7267 20.3568 0
0.807014 69.3208 19.7588 0
2.333 69.9723 20.775 0
2.12374 70.987 20.5181 0
1.89006 71.9644 20.5823 0
0.684191 70.5528 19.7981 0
0.306284 69.1321 19.1975 0
1.09246 71.9582 20.2268 0
0.479149 71.8895 20.0496 0
-0.0842525 71.8759 19.6842 0
3.08798 65.5809 20.692 0
3.64222 65.2239 21.3835 0
1.78192 66.9436 19.036 0
2.42788 66.0633 20.0052 0
3.23192 65.6511 19.791 0
3.318 66.1191 18.8861 0
3.87453 65.4262 19.6009 0
0.513228 69.307 18.6658 0
1.01361 67.9196 18.4033 0
-0.337167 72.0614 19.1359 0
0.228967 70.6884 18.9001 0
0.799183 69.679 18.1259 0
1.14912 70.3785 17.5738 0
1.63033 68.5933 17.3256 0
2.67143 66.8141 18.1442 0
3.53397 66.765 18.1756 0
1.95753 67.0726 18.1661 0
2.21055 67.5262 17.6833 0
2.33574 67.8416 16.8339 0
3.60683 67.0203 17.4139 0
4.31511 66.7078 18.2344 0
2.37353 68.7871 16.5603 0
2.7955 67.3334 16.4874 0
3.60776 67.1894 16.693 0
3.67742 67.9965 16.5905 0
4.40313 67.0576 16.9174 0
-2.5863 79.4254 25.2643 0
-2.23874 78.5283 25.3158 0
-3.02492 81.4706 24.898 0
-2.77833 80.467 24.9897 0
-3.16604 79.7908 24.6999 0
-3.82287 80.1839 24.2683 0
-3.59584 79.2704 24.4099 0
-3.20703 83.4674 24.6211 0
-3.23132 82.4842 24.8893 0
-2.80078 85.213 23.9112 0
-3.01539 84.3579 24.258 0
-3.4787 83.6228 23.9732 0
-3.77682 83.7617 23.3671 0
-3.96306 82.9334 23.7492 0
-4.09914 81.1234 24.3257 0
-4.59427 80.6112 23.9303 0
-3.66128 81.7288 24.6555 0
-4.12057 82.0263 24.16 0
-4.46769 82.3463 23.5071 0
-5.11789 80.9688 23.4172 0
-5.03144 80.0851 23.5865 0
-4.81654 82.557 22.9035 0
-4.95988 81.7934 23.1811 0
-5.28071 81.2789 22.9033 0
-5.55884 81.5077 22.3716 0
-5.55688 80.7689 22.5711 0
-2.46489 86.8732 23.4446 0
-2.62463 86.0621 23.6752 0
-2.55699 88.4132 22.8774 0
-2.42725 87.6519 23.1215 0
-2.69229 86.7821 22.7277 0
-3.04245 86.7206 22.0725 0
-3.2101 86.0357 22.4029 0
-2.53443 89.6642 22.6217 0
-2.6128 89.0543 22.7769 0
-2.94839 90.6704 22.2711 0
-2.65543 90.1938 22.4015 0
-2.96196 89.4435 21.9713 0
-3.41057 89.1769 21.3646 0
-3.5448 88.5887 21.6522 0
-3.24044 87.3852 21.9327 0
-3.52846 86.6444 21.4474 0
-3.05577 88.2176 22.4072 0
-3.52275 88.0298 21.8662 0
-3.95414 87.7424 21.221 0
-4.0861 86.5071 20.8463 0
-4.19343 85.9734 21.2011 0
-4.46118 87.4413 20.6313 0
-4.2561 86.9683 20.7005 0
-4.78487 86.2592 20.3445 0
-5.34801 86.0038 19.7829 0
-5.32647 85.5858 20.0263 0
-5.57065 82.2288 22.0969 0
-5.63894 81.6172 21.6936 0
-4.64914 83.2821 22.5669 0
-5.15768 82.7623 22.3482 0
-5.46715 82.9152 21.777 0
-5.15531 83.5315 21.3418 0
-5.42401 82.9168 21.0208 0
-3.55381 84.5542 23.0405 0
-4.12013 83.9004 22.7989 0
-3.03315 85.2753 23.296 0
-3.35805 85.336 22.7039 0
-3.83291 85.3761 22.1598 0
-4.67696 84.0868 21.5653 0
-4.95228 84.1431 20.915 0
-4.461 84.0006 22.2087 0
-4.36126 84.7075 21.9026 0
-4.31189 85.3901 21.5891 0
-5.09437 84.6816 20.5955 0
-5.11998 84.0789 20.015 0
-4.80376 85.304 20.9724 0
-5.27066 85.1598 20.3141 0
-5.60847 84.9678 19.5551 0
-5.67774 81.6803 21.0341 0
-5.70167 81.0115 21.2581 0
-5.4143 82.9251 20.1963 0
-5.58404 82.302 20.6705 0
-5.67055 81.8232 20.3881 0
-5.78662 82.0323 19.7592 0
-5.70758 81.3602 20.1239 0
-5.36855 83.9545 19.1599 0
-5.31324 83.4771 19.5931 0
-5.94109 84.7625 18.8789 0
-5.66819 84.3709 19.0032 0
-5.79527 83.8214 18.6365 0
-6.26976 83.627 18.1638 0
-6.37618 83.2143 18.4979 0
-6.32059 82.3628 19.3234 0
-6.19789 81.9446 19.1161 0
-5.86478 82.8998 19.4611 0
-6.45026 82.7793 18.8637 0
-6.82169 82.4074 18.2358 0
-6.32409 81.7542 18.4471 0
-5.80023 81.3541 18.837 0
-7.15407 81.9482 17.57 0
-6.76821 81.8479 17.9725 0
-6.2419 81.6277 17.8438 0
-6.02809 81.6077 17.315 0
-5.45148 81.1826 17.6241 0
2.98068 69.3907 16.4976 0
3.61024 68.9133 16.4165 0
1.86002 70.5087 16.8292 0
2.42547 69.9004 16.6224 0
2.40908 70.988 16.7716 0
1.8888 72.5949 17.0627 0
2.46751 72.0592 16.9365 0
0.571319 71.7699 17.7725 0
1.32746 71.2625 17.3102 0
-0.75125 73.5019 18.9757 0
-0.447758 72.4073 18.4912 0
-0.286283 73.0471 17.815 0
-0.795082 74.5533 17.5754 0
-0.199202 73.9579 17.1859 0
1.35237 73.1652 17.3176 0
1.23102 74.1025 17.1774 0
1.39286 72.1948 17.3405 0
0.652458 73.541 17.1972 0
-0.188413 74.9393 16.8337 0
0.577547 75.4603 16.6678 0
1.24535 75.0483 16.8312 0
-0.524653 76.481 17.3561 0
-0.00438505 75.9259 16.7924 0
0.0276611 76.8082 16.693 0
-0.667298 78.0715 17.0583 0
0.0586598 77.6395 16.6485 0
-0.436635 75.7449 19.9539 0
-0.71097 74.5642 19.4764 0
-1.62665 76.7268 22.0065 0
-1.12571 76.2114 20.8681 0
-1.82858 76.0369 20.5849 0
-3.08469 76.7003 21.71 0
-2.50694 75.9147 20.1985 0
-2.32401 77.5128 24.0211 0
-1.99044 77.1052 23.065 0
-2.53395 77.9842 24.8652 0
-3.4306 78.3011 24.6491 0
-4.02549 78.6771 24.1583 0
-3.55412 77.3459 22.8445 0
-4.50216 77.7332 22.5709 0
-2.78131 77.1535 22.9696 0
-3.85504 78.0218 23.5092 0
-4.62894 79.0763 23.6668 0
-5.24486 78.8626 22.7454 0
-5.08868 78.0694 21.8216 0
-5.1557 79.5066 23.1948 0
-5.52548 79.9134 22.6695 0
-5.62556 80.2032 22.0462 0
-1.41171 78.3588 17.7718 0
-1.38131 78.8036 17.8852 0
-1.15573 76.9955 17.9197 0
-1.34298 77.7019 17.8778 0
-2.28146 78.401 18.5562 0
-3.31312 78.242 19.1911 0
-3.16813 78.6347 19.3544 0
-1.06169 75.2468 18.2408 0
-1.1919 76.0389 17.8372 0
-0.9158 74.8293 18.7782 0
-0.97001 76.1411 19.2064 0
-2.82554 76.3997 19.8439 0
-3.38308 77.8206 19.143 0
-4.64279 77.9495 19.7846 0
-1.97997 77.3494 18.5511 0
-3.15874 77.161 19.4729 0
-4.30054 77.3674 20.4105 0
-5.65124 78.3069 20.0611 0
-5.51181 78.4248 19.629 0
-5.56035 78.3097 20.8945 0
-5.70326 79.4579 21.3125 0
-5.70015 80.3168 21.3721 0
-2.12476 79.1988 18.7878 0
-1.34107 79.2601 17.9762 0
-4.02807 78.6349 19.697 0
-2.93922 79.0339 19.4946 0
-2.7214 79.4623 19.6727 0
-3.26621 79.5214 19.9367 0
-2.52725 79.8962 19.8591 0
-5.53096 79.5357 19.9948 0
-5.14876 78.6614 19.3851 0
-5.61572 80.4419 20.805 0
-5.46952 80.5758 20.2914 0
-5.38795 80.6306 19.6758 0
-4.3009 79.3489 19.3817 0
-3.99909 79.6823 19.3325 0
-4.74162 78.9574 19.2812 0
-5.11819 79.6519 19.0334 0
-5.21682 80.6218 19.0156 0
-4.59656 80.1168 18.6543 0
-3.95036 80.4844 19.3245 0
-5.07792 80.5916 18.4427 0
-4.85025 80.6496 17.96 0
-4.61216 80.9225 17.7006 0
3.55925 69.9055 16.5661 0
4.3914 68.4264 16.3144 0
2.57103 73.1266 17.12 0
3.04515 71.534 16.8415 0
3.59015 70.9791 16.7364 0
3.70324 72.1724 16.9164 0
1.27755 76.0051 16.4597 0
1.92412 74.6153 16.9221 0
0.162444 78.3643 16.7501 0
0.816877 77.2311 16.4338 0
1.44372 76.9 16.4292 0
1.6658 77.8332 16.3237 0
2.11057 76.6291 16.3551 0
3.23249 73.7454 17.0742 0
2.58972 74.1366 16.9525 0
2.62269 75.1827 16.7439 0
-1.13848 79.783 18.1993 0
-0.574037 79.1804 17.3569 0
-2.39021 80.425 19.7645 0
-1.74672 80.1305 19.2344 0
-0.922329 80.2939 18.4493 0
-0.681974 80.7287 18.6113 0
-0.14367 80.3217 17.9045 0
-3.65699 80.9959 19.1716 0
-3.20223 80.9334 19.8151 0
-4.44088 81.2217 17.4642 0
-3.98817 81.0267 18.3075 0
-3.29179 81.386 18.7358 0
-2.9895 81.8686 18.3405 0
-2.60781 81.7247 18.9808 0
-1.26512 80.9093 19.0684 0
-0.40376 81.1285 18.8811 0
-2.1452 80.8099 19.5198 0
-1.89056 81.2215 19.2192 0
-1.6408 81.8109 19.2843 0
-0.150579 81.6063 19.0722 0
0.390301 81.2679 18.5382 0
-1.37919 82.3527 19.1694 0
-0.746023 81.9473 19.3871 0
-0.00795871 82.2123 19.4054 0
1.09843 78.7717 16.6223 0
1.89203 78.6181 16.3497 0
0.211083 79.0094 16.894 0
0.384806 79.7026 17.1001 0
0.648806 80.3469 17.4387 0
0.913334 80.9045 17.7801 0
-3.29103 91.134 22.1846 0
-4.03844 92.1112 21.7149 0
-4.05374 91.384 21.4069 0
-4.23826 91.1678 20.6815 0
-4.09601 90.6712 21.0648 0
-4.21409 93.446 18.7583 0
-4.52953 92.8412 19.0881 0
-4.40842 91.6575 20.2173 0
-4.5399 90.9659 19.995 0
-4.31952 92.3707 20.4329 0
-4.49506 92.2109 19.6784 0
-4.66904 92.1737 18.8879 0
-4.81476 90.8129 19.2182 0
-4.72377 90.2119 19.6038 0
-4.70658 92.1471 18.2123 0
-4.8351 91.475 18.6439 0
-4.93682 90.6536 18.5 0
-5.0059 90.5065 17.8529 0
-5.17254 89.8047 18.1645 0
-1.47813 95.4584 17.1273 0
-0.331863 95.7726 17.2126 0
0.0478399 95.4331 17.0801 0
-0.585932 94.6589 17.061 0
-4.85521 91.3125 17.5275 0
-5.24084 90.4364 17.3011 0
-3.99709 92.7089 18.1862 0
-4.65871 92.1131 17.7365 0
-4.64402 92.0525 17.2682 0
-3.71275 92.4571 17.3002 0
-4.51702 91.865 16.7679 0
-3.6748 94.2144 18.2565 0
-3.70542 93.3483 18.4856 0
-2.62068 94.8828 17.4531 0
-2.99806 93.0455 17.7772 0
-2.75973 92.8191 17.3491 0
-3.28541 93.2634 18.1933 0
-2.67169 93.9629 17.7659 0
-2.14152 94.7323 17.2299 0
-2.05939 93.4048 17.1424 0
-2.60318 92.6058 16.9477 0
-1.75347 94.3931 17.0822 0
-1.29328 94.0061 17.0624 0
-0.968362 93.6764 16.953 0
-5.50166 90.3327 16.7587 0
-5.83976 89.7248 17.0001 0
-4.34907 91.6119 16.31 0
-4.98974 90.9971 16.5173 0
-5.50599 90.1388 16.284 0
-5.41484 89.9369 15.8334 0
-5.92102 89.3295 16.0026 0
-2.50997 92.4154 16.6924 0
-3.45197 92.0354 16.3613 0
-0.924966 93.4815 16.7264 0
-1.66675 92.9093 16.8071 0
-2.43475 92.215 16.4293 0
-2.56732 92.2323 15.9358 0
-3.49212 91.8766 15.6574 0
-4.8022 90.5601 15.6305 0
-5.37751 89.8072 15.3876 0
-4.21947 91.3714 15.8669 0
-4.25938 91.3389 15.5079 0
-4.29919 91.3061 15.1565 0
-5.53727 89.9724 14.9381 0
-6.14124 89.4149 15.0749 0
-4.43817 91.3934 14.7064 0
-4.97805 90.658 14.8226 0
-5.68825 90.1434 14.4715 0
-5.6199 90.0523 13.9576 0
-6.16835 89.4614 14.0891 0
-5.07597 90.6032 13.8742 0
-5.4425 89.7841 13.4976 0
-3.74102 91.9033 14.606 0
-4.55102 91.3886 14.2032 0
-4.51903 91.2351 13.718 0
-3.92648 91.8035 13.5297 0
-4.33443 90.8534 13.2354 0
-1.73538 92.6105 15.9496 0
-2.73771 92.2206 15.2052 0
-0.251353 94.0946 16.6567 0
-0.932337 93.2803 16.4883 0
-1.03196 93.1591 15.9364 0
-0.451257 93.6664 15.9911 0
-1.27681 93.0824 15.2296 0
-3.03981 92.2507 13.9953 0
-3.10946 92.1624 13.3906 0
-2.88128 92.2229 14.5583 0
-2.04053 92.5298 14.4878 0
-1.65441 93.0107 14.6117 0
-2.31142 92.4961 13.2679 0
-2.99784 91.7366 12.8476 0
-1.33847 93.4897 14.7624 0
-1.73125 92.9789 13.945 0
-1.77753 92.9041 13.2054 0
-1.41456 93.3727 13.1812 0
-2.02401 92.5604 12.6326 0
0.410358 95.0796 16.935 0
-1.07104 93.913 14.0409 0
-1.03658 93.878 13.1572 0
-0.517664 94.1021 15.5352 0
-1.07195 93.9908 14.9018 0
0.284672 94.5332 16.4521 0
-0.0382536 94.2591 16.107 0
0.419821 94.8233 16.7014 0
-1.7945 93.8469 12.4752 0
-5.22881 89.5103 13.0465 0
-5.79058 89.0235 13.0953 0
-4.12844 90.4386 12.7024 0
-4.67191 89.9374 12.9197 0
-5.0072 89.1875 12.5301 0
-4.77144 88.8841 11.9834 0
-5.33858 88.4712 12.1159 0
-3.12637 91.365 12.3227 0
-3.55506 90.9172 12.4759 0
-2.37881 92.3152 12.0411 0
-2.67665 91.7949 12.1886 0
-3.16946 90.9625 11.8035 0
-3.45044 90.7506 11.2508 0
-3.6158 90.18 11.4699 0
-4.23152 89.298 11.8333 0
-4.62038 88.6496 11.4566 0
-3.87542 90.0726 12.169 0
-3.96982 89.7399 11.6768 0
-4.23345 89.5372 11.1491 0
-4.66647 88.5578 10.8799 0
-4.74528 88.1696 11.0321 0
-4.65723 89.5118 10.4456 0
-4.56603 88.9854 10.7278 0
-4.37125 88.6587 10.1801 0
-4.54459 88.6067 9.20184 0
-4.19257 88.2839 9.60175 0
-2.43179 93.0652 11.8941 0
-3.84317 93.1691 10.6082 0
-4.88824 88.9349 8.77187 0
-4.616 88.6806 8.27535 0
-4.60712 90.236 10.1252 0
-4.81033 89.5131 9.42474 0
-4.98063 89.6257 8.68829 0
-5.09966 90.2982 8.66651 0
-5.11508 89.8359 8.0187 0
-3.48601 91.4725 11.0611 0
-4.07854 90.8773 10.6044 0
-2.9417 92.234 11.4654 0
-3.60516 92.2841 10.8211 0
-4.17285 92.3774 10.0748 0
-4.84754 90.9499 9.15789 0
-5.61751 90.8046 8.61712 0
-4.5891 90.9513 9.86039 0
-4.53266 91.6242 9.57147 0
-6.08662 91.2809 8.57563 0
-5.99704 90.8406 8.02502 0
-5.71685 92.033 9.06575 0
-6.45094 91.8072 8.60248 0
-6.66978 91.8901 8.06389 0
-4.28241 89.2746 7.52367 0
-4.06157 88.6948 7.731 0
-5.17514 90.1624 7.38075 0
-4.56858 89.8426 7.34704 0
-3.85506 89.9592 6.82054 0
-3.49161 90.7476 6.36894 0
-3.18243 90.2203 6.50119 0
-6.18184 91.0269 7.49841 0
-5.77094 90.5334 7.44561 0
-6.53164 91.5148 7.49133 0
-5.88805 91.5737 6.83332 0
-3.96643 91.1831 6.34018 0
-3.21715 91.5249 6.05965 0
-4.86947 90.8049 6.80903 0
-4.53124 91.5094 6.34056 0
-0.384033 83.0174 19.6045 0
-1.98943 82.7585 18.6003 0
-1.16533 82.8962 19.0792 0
-0.962415 83.4668 18.9262 0
-1.46262 83.8563 18.1918 0
-3.34506 81.9888 17.6319 0
-2.64489 82.3648 18.1013 0
-4.94309 81.533 16.9049 0
-4.14225 81.6588 17.1834 0
-3.88808 82.3077 17.0812 0
-4.34478 82.6479 16.5902 0
-3.61111 82.9445 16.9454 0
-2.12215 83.5123 17.6771 0
-1.88997 84.1386 17.5311 0
-2.38307 82.94 17.8924 0
-2.8234 83.1979 17.2684 0
-3.26139 83.5115 16.744 0
-2.2917 84.4402 16.9495 0
-1.6738 84.7806 17.3804 0
-3.62832 83.7296 16.1882 0
-2.92267 84.083 16.553 0
-2.6684 84.7266 16.3856 0
-3.01816 84.978 15.7976 0
-2.42216 85.3613 16.1478 0
-2.48576 85.9615 15.408 0
-6.41112 81.9064 17.009 0
-5.71836 81.7188 16.8954 0
-7.38844 82.3414 17.4616 0
-6.95588 82.0547 17.1506 0
-6.72075 82.2695 16.7933 0
-7.02908 82.6533 16.6237 0
-6.39432 82.458 16.3382 0
-6.43339 83.9572 17.9472 0
-6.95572 83.1903 17.7841 0
-6.13833 85.1301 18.7318 0
-6.26187 84.5391 18.3115 0
-6.62179 84.2846 17.743 0
-6.80536 84.6286 17.5391 0
-7.42473 83.8846 17.4523 0
-7.57518 82.8639 16.9811 0
-7.33735 83.1134 16.4898 0
-7.71665 82.7277 17.4075 0
-8.03354 83.1171 17.3453 0
-7.9988 83.6722 17.1221 0
-7.63793 83.5804 16.3577 0
-6.98364 83.4152 16.0346 0
-7.95157 84.2512 16.8882 0
-7.88336 83.8746 16.6422 0
-7.81765 84.0703 16.0879 0
-7.97703 84.5942 15.6739 0
-7.4976 84.4223 15.5805 0
-5.40323 86.4502 19.6087 0
-5.83269 85.7817 19.1859 0
-4.49169 87.9513 20.4668 0
-4.8961 87.1775 20.0029 0
-5.26411 86.9301 19.3336 0
-5.10284 87.4397 19.0555 0
-5.88228 86.7282 18.8383 0
-3.42635 89.7194 21.1607 0
-3.92632 88.8557 20.8138 0
-3.33719 90.4536 21.6895 0
-3.75631 90.2002 21.1176 0
-4.20898 89.9141 20.5379 0
-4.72501 88.2546 19.517 0
-5.15332 87.9694 18.8629 0
-4.46452 88.5142 20.2456 0
-4.44412 89.0789 20.0234 0
-4.55002 89.6423 19.8283 0
-5.31815 88.5214 18.686 0
-5.83961 87.7962 18.404 0
-5.03709 89.3745 19.1598 0
-5.38006 89.1302 18.459 0
-5.81303 89.1294 17.8563 0
-8.01069 85.0872 15.9474 0
-8.10243 85.2922 15.272 0
-7.5408 85.0106 17.0813 0
-7.9179 84.9103 16.6426 0
-7.87383 85.7198 16.3326 0
-7.75558 86.4445 16.6554 0
-7.81596 86.4989 16.0356 0
-6.61841 85.3137 18.0137 0
-7.0747 85.1551 17.4287 0
-6.31682 85.5553 18.6296 0
-6.49487 86.0215 18.5432 0
-6.55813 86.5348 18.3853 0
-7.63321 86.4078 17.234 0
-7.53761 87.0578 17.0353 0
-7.41455 85.7487 17.3464 0
-7.10025 86.4465 17.8245 0
-6.50682 87.0678 18.1646 0
-6.95181 87.6988 17.3544 0
-7.44193 87.7059 16.7929 0
-6.45353 87.6888 17.8953 0
-6.36462 88.4176 17.5684 0
-6.24869 89.133 17.2581 0
-8.01803 86.1616 14.9853 0
-7.82309 85.5471 14.7376 0
-7.6577 87.1322 15.7081 0
-7.8605 86.6738 15.3398 0
-7.94052 86.8439 14.7362 0
-7.77934 87.3178 14.55 0
-7.94293 86.842 14.2 0
-6.88102 88.2141 16.4629 0
-7.44255 87.6879 16.1036 0
-6.33232 88.9505 16.704 0
-6.38394 88.729 16.1874 0
-6.50608 88.7042 15.6997 0
-7.54742 87.7348 14.8739 0
-7.60536 87.7631 14.3849 0
-7.4753 87.7126 15.4329 0
-7.04689 88.2487 15.2978 0
-6.67766 88.8464 15.2121 0
-7.25629 88.3799 14.3098 0
-7.65449 87.7989 13.8758 0
-6.83764 88.9858 14.727 0
-6.72475 88.886 14.2115 0
-6.57184 88.7463 13.6532 0
-3.0576 85.5651 15.0583 0
-2.73246 85.8974 14.8476 0
-2.76498 85.5881 14.1731 0
-3.36839 85.2774 13.9031 0
-2.81724 85.3061 13.5246 0
-1.99579 85.4675 11.998 0
-2.34713 85.3644 13.0783 0
-3.00193 85.1298 12.8341 0
-2.72189 85.3099 11.811 0
-2.17181 85.5343 11.45 0
-3.70473 85.1318 12.6822 0
-3.20579 85.1473 12.2238 0
-3.42817 85.2959 11.6452 0
-4.17535 85.462 11.5906 0
-3.62001 85.5326 11.1313 0
-3.61657 84.5586 15.452 0
-3.34273 85.1481 15.2535 0
-4.34405 83.2459 15.7211 0
-3.96282 83.8748 15.5816 0
-4.31814 84.0993 15.0492 0
-5.09443 83.7308 14.8143 0
-4.70497 84.4104 14.7239 0
-5.04804 82.3311 16.2263 0
-4.7104 82.7796 15.9732 0
-5.36242 81.9041 16.4752 0
-5.73482 82.2646 16.1151 0
-6.02903 82.7587 15.93 0
-5.37217 83.4037 15.1883 0
-5.75904 83.7369 14.8821 0
-5.0385 82.9698 15.4308 0
-5.68057 83.1067 15.5705 0
-6.31392 83.2541 15.7491 0
-6.31773 84.0396 15.1405 0
-6.07926 84.2486 14.6897 0
-6.62504 83.7586 15.5946 0
-6.92259 84.2761 15.4023 0
-7.17836 84.7859 15.1466 0
-4.68082 85.4339 12.1056 0
-4.85487 85.6805 11.66 0
-4.22216 85.2276 13.1772 0
-4.48018 85.2935 12.5879 0
-5.2298 85.4604 12.586 0
-5.72783 85.3087 13.0463 0
-6.0204 85.4936 12.587 0
-3.96366 85.2611 14.3703 0
-4.01428 85.0048 13.7425 0
-3.65533 85.182 14.7538 0
-4.2716 84.8441 14.5689 0
-5.02362 84.4964 14.3676 0
-5.43464 85.0592 13.5481 0
-6.13965 85.0362 13.4923 0
-4.78248 85.1243 13.6421 0
-5.24608 84.8368 14.0636 0
-5.68661 84.36 14.2114 0
-6.4519 84.9921 14.0696 0
-6.69858 85.3907 13.6474 0
-6.2669 84.5981 14.4126 0
-6.81734 84.9411 14.6497 0
-7.31564 85.2284 14.7186 0
-5.45488 85.9933 11.8277 0
-4.79511 85.9744 11.4159 0
-6.71048 85.762 12.6838 0
-6.10907 85.9198 12.2552 0
-6.09292 86.3627 11.9716 0
-6.55501 86.7041 12.1829 0
-5.93989 86.632 11.7496 0
-7.25805 85.8306 13.7806 0
-7.02055 85.7531 13.2264 0
-7.48397 85.802 14.2951 0
-7.67613 86.3201 13.9558 0
-7.82803 86.6734 13.6142 0
-7.14316 86.5887 12.5948 0
-6.75275 86.9884 12.5007 0
-7.26134 86.1301 12.8248 0
-7.70335 86.5141 12.9956 0
-7.68767 87.1436 13.4301 0
-6.92851 87.3313 12.8358 0
-6.49616 87.2853 12.3368 0
-7.3227 87.5698 13.3607 0
-6.81619 88.0309 13.2551 0
-6.29592 88.5164 13.1553 0
-2.24642 85.8804 10.8567 0
-3.67123 85.8387 10.745 0
-2.98666 85.8549 10.7506 0
-2.27048 86.2773 10.3277 0
-2.34137 86.6487 9.81859 0
-1.67479 86.9404 9.85164 0
-1.20947 87.8688 9.43285 0
-1.25733 88.3989 8.76338 0
-4.727 86.2308 11.1842 0
-4.21449 86.0381 10.9778 0
-5.7366 86.8811 11.5709 0
-5.23533 86.5376 11.3753 0
-4.63008 86.5992 10.9494 0
-4.52028 86.9692 10.7076 0
-4.02237 86.7769 10.4902 0
-6.13995 87.6681 12.2343 0
-6.12366 87.2259 11.8085 0
-6.03084 88.2761 12.7087 0
-5.69965 88.1122 12.1724 0
-5.4339 87.897 11.6408 0
-5.00231 87.2366 10.9167 0
-4.38027 87.3321 10.4509 0
-5.57741 87.1758 11.3669 0
-5.346 87.519 11.2172 0
-4.99532 87.8338 11.1504 0
-4.33106 87.5872 10.1265 0
-3.94856 87.2315 9.66175 0
-4.56199 87.8891 10.5982 0
-4.23611 87.9084 9.87807 0
-3.94381 87.8184 8.98817 0
-1.94827 87.8336 8.67932 0
-1.35292 89.3375 7.62459 0
-2.09387 88.914 7.72619 0
-1.41208 89.7141 7.18892 0
-2.891 86.5854 10.0594 0
-2.47391 86.8019 9.19039 0
-3.58071 86.1928 10.5141 0
-3.46967 86.5709 10.2638 0
-3.4642 86.8304 9.87243 0
-2.65843 87.6056 8.04524 0
-2.69903 88.2259 7.72569 0
-2.59323 87.0008 8.47823 0
-3.10247 86.9077 8.89408 0
-3.49612 86.9726 9.33273 0
-3.18239 87.7637 7.94382 0
-2.72306 88.7425 7.36098 0
-3.48118 87.1085 8.72605 0
-3.65805 87.5813 8.38207 0
-3.91043 88.1001 8.08004 0
-1.50394 90.1027 6.8309 0
-0.727471 90.427 6.70081 0
-2.81313 89.3069 7.07942 0
-2.23402 89.7614 6.98848 0
-3.40647 88.8783 7.25424 0
-2.95376 89.7818 6.78545 0
-2.56302 90.571 6.32055 0
-1.64104 90.5722 6.72477 0
-1.99815 91.5486 6.14775 0
5.31757 68.1347 25.6017 0
5.6922 68.7409 25.5546 0
4.66372 67.1549 25.7845 0
4.85105 67.584 25.7428 0
4.90878 67.0967 26.2554 0
5.19835 66.3863 26.7023 0
4.63059 66.6163 26.7225 0
3.77789 65.7194 25.213 0
4.15058 66.456 25.6508 0
3.90363 64.6476 23.3639 0
3.79073 65.1669 24.3942 0
4.45832 65.1974 25.2113 0
5.29345 64.6654 25.0374 0
5.40844 65.2486 25.8514 0
5.58007 66.3022 26.6382 0
5.95887 65.7921 26.92 0
5.07398 66.6717 26.3051 0
5.72772 65.9721 26.4191 0
6.34758 65.3072 26.4979 0
6.52068 65.4997 27.2703 0
5.45457 65.2223 27.4809 0
7.08217 65.0087 26.6073 0
6.7045 65.3381 27.1027 0
7.02322 65.3334 27.6653 0
7.66235 65.1373 27.5733 0
6.46159 64.7313 28.0516 0
4.4203 64.913 21.1467 0
4.18772 64.7965 22.1336 0
4.70114 65.5614 19.578 0
4.55445 65.0924 20.3123 0
5.32265 64.7897 21.0547 0
6.25365 64.7911 21.0352 0
6.05315 64.5832 21.7826 0
5.08582 66.6879 18.2762 0
4.9617 66.2343 18.9612 0
5.16292 66.9622 16.9533 0
5.14287 66.8473 17.6667 0
5.85888 66.6773 18.3144 0
6.66235 66.6758 18.3565 0
6.62162 66.4312 19.0939 0
6.43054 65.4872 20.3932 0
7.21476 64.9644 21.0484 0
5.64093 65.8699 19.6689 0
6.54212 66.113 19.7749 0
7.39875 66.3604 19.906 0
8.13885 65.1615 21.0744 0
7.87747 64.704 21.6242 0
8.241 66.5792 20.0015 0
8.04164 64.8601 26.8794 0
8.30225 64.9303 27.3098 0
6.94009 64.8059 25.5868 0
7.70397 64.8463 26.4048 0
8.03912 64.7504 25.6289 0
8.19106 64.9642 24.5423 0
8.63536 64.8335 25.0802 0
5.55107 64.5512 23.7956 0
6.12466 64.6538 24.6757 0
4.89377 64.6221 22.9355 0
5.82642 64.5374 22.6246 0
6.68085 64.4458 22.3717 0
7.72192 64.9165 23.9244 0
8.51391 65.0357 23.5867 0
6.90207 64.8468 24.2955 0
7.2371 64.5761 23.1315 0
7.51518 64.373 22.1701 0
8.43822 64.7795 22.2052 0
8.05179 64.7023 27.4604 0
5.20315 67.4836 16.5333 0
11.0659 72.8307 26.8941 0
10.2554 71.4113 29.1189 0
10.2737 71.3415 29.6214 0
8.77028 70.0585 31.4396 0
9.06691 69.7928 31.9812 0
8.18261 68.0488 33.39 0
10.1184 73.5084 25.985 0
10.5991 73.2527 26.4622 0
8.95348 73.4889 25.3048 0
9.63359 73.4981 25.5997 0
9.11827 73.6273 26.8001 0
8.08554 73.8879 27.4687 0
8.63836 73.2236 28.0466 0
7.48606 72.0505 24.9628 0
8.16096 72.7934 25.1111 0
6.23218 70.6161 25.3674 0
6.85362 71.3396 25.1689 0
6.48968 72.1128 25.8564 0
5.29729 72.1892 26.7204 0
6.0962 72.9281 26.6418 0
7.48218 73.9312 27.0978 0
6.94217 73.4109 27.9063 0
7.93008 73.6774 26.1465 0
6.83433 73.5885 26.7658 0
5.6902 72.8001 27.1567 0
5.74141 72.5528 28.2372 0
6.49562 72.1291 28.6569 0
4.64498 71.6557 27.4108 0
5.11919 72.3818 27.816 0
4.78871 71.7591 28.2519 0
3.92627 70.7652 28.1233 0
4.49429 70.8648 28.7713 0
7.72647 68.3679 32.8196 0
7.26086 67.5264 33.5989 0
8.5241 70.2883 30.8239 0
7.98448 69.4369 31.86 0
6.98322 68.9397 32.0973 0
6.45577 69.4506 31.3329 0
5.80458 68.9342 32.4138 0
9.77457 71.8873 28.7958 0
9.29997 70.9936 29.6966 0
10.2367 72.5367 27.7395 0
9.21356 72.6106 28.5175 0
8.14993 72.2921 28.9698 0
7.04539 70.3466 30.4331 0
6.00812 70.0046 30.5635 0
8.11161 70.6964 30.1714 0
7.57187 71.2346 29.687 0
7.13162 71.6515 29.1449 0
5.53907 70.4157 29.9346 0
4.78825 69.8957 30.784 0
6.1136 71.175 29.2599 0
5.04539 70.7389 29.3625 0
3.75916 70.5552 29.3655 0
5.94777 67.7789 33.9299 0
6.62353 66.7038 34.025 0
4.64144 69.2238 32.7757 0
5.25537 68.5541 33.4274 0
4.85068 67.7607 33.9524 0
3.90667 67.3278 33.5816 0
4.492 66.7334 34.0252 0
3.46184 69.641 30.897 0
4.07276 69.6096 31.9254 0
2.43611 70.5325 29.2382 0
2.93439 70.0075 30.0536 0
2.48796 69.2387 30.4067 0
1.67071 68.9202 29.7743 0
2.0448 68.6389 30.8054 0
3.23672 67.8724 32.7813 0
2.96204 66.919 32.8489 0
3.55886 68.949 32.5228 0
2.50688 68.3699 31.8439 0
1.80574 67.7951 30.806 0
2.02126 66.5664 31.8717 0
2.51495 65.9109 32.6413 0
1.25093 67.2316 29.6341 0
1.59898 66.9365 30.7663 0
1.18569 66.1901 30.9062 0
0.321993 65.8247 29.9846 0
0.866919 65.2926 30.7512 0
5.0577 63.634 34.8749 0
5.9899 65.214 34.9619 0
7.03994 66.4701 34.4447 0
3.68602 62.4795 33.8519 0
2.82782 62.0584 33.6757 0
4.85567 63.7315 34.2797 0
4.35192 62.9731 34.0576 0
3.56014 62.6566 33.2497 0
3.14915 63.1202 32.7354 0
2.53683 62.4737 32.5473 0
5.70192 65.2769 34.5345 0
5.32599 64.5377 34.5008 0
6.11012 65.9161 34.2924 0
5.10707 65.9275 34.2563 0
4.0929 65.7219 33.9178 0
3.64131 63.8033 32.8445 0
2.58915 63.6545 32.3651 0
4.55389 64.1079 33.5809 0
3.88694 64.6895 33.3536 0
3.00265 65.3009 33.2923 0
1.95215 64.1888 31.9924 0
1.76757 63.4408 31.4099 0
2.13714 64.9757 32.441 0
1.36549 64.7346 31.4848 0
0.435598 64.5182 30.6146 0
1.58147 61.5337 34.2498 0
-0.68843 61.0364 33.517 0
-3.40605 60.3416 33.6418 0
1.82712 61.5508 33.0357 0
1.78695 61.484 33.6022 0
1.39416 62.3621 31.7713 0
1.65432 61.9303 32.3862 0
0.768834 61.2652 32.3101 0
-0.208582 60.8582 31.5807 0
-0.0461867 60.622 32.0518 0
0.991469 63.205 30.3319 0
1.23008 62.7708 31.0299 0
-0.601656 64.3336 29.8082 0
0.172935 63.768 30.1228 0
-0.366842 63.0276 29.8861 0
-1.89416 62.8273 29.5902 0
-1.30213 62.3766 29.9723 0
-0.504101 61.4264 31.0002 0
-1.52024 60.6405 31.046 0
0.371339 62.156 31.0006 0
-0.773946 61.9438 30.3846 0
-2.12836 61.5701 29.9416 0
-2.89499 60.3893 30.5261 0
-2.75979 60.1462 30.9882 0
-3.41539 61.1126 29.4019 0
-3.14294 60.7503 29.9699 0
-3.88158 59.5584 29.7581 0
-4.87554 58.8555 29.0014 0
-4.89094 58.8184 29.4809 0
-5.23895 61.0186 32.7747 0
-6.1473 61.4235 32.9179 0
-3.16552 59.91 33.128 0
-4.29913 60.4706 32.8381 0
-5.21161 60.5516 32.0706 0
-5.20542 59.9872 31.4595 0
-6.29527 60.3168 31.6175 0
-0.142888 60.6248 32.9172 0
-1.74628 60.2798 33.0172 0
0.788449 61.002 33.3501 0
0.0866262 60.4969 32.4079 0
-1.24926 60.2037 31.9065 0
-4.00354 59.6071 31.6496 0
-5.13885 59.5073 30.8101 0
-2.92635 59.6036 32.5892 0
-2.74172 59.7697 31.9812 0
-2.66649 59.9358 31.4253 0
-5.00889 59.1478 30.3844 0
-6.31803 59.0582 30.3957 0
-3.78071 59.4089 30.6861 0
-4.91088 58.8561 29.9485 0
-6.15469 58.4126 29.3694 0
-7.07476 61.2642 32.4493 0
-7.01089 61.6268 33.1828 0
-7.32903 59.8973 31.3241 0
-7.17359 60.7121 31.851 0
-8.07792 60.7394 32.2496 0
-9.08639 59.7947 32.4967 0
-8.84575 60.5731 32.9663 0
-7.4971 58.5967 30.0018 0
-7.50015 59.1929 30.6558 0
-7.3119 57.9521 28.9175 0
-7.43421 58.2432 29.4365 0
-8.67647 58.1456 29.6784 0
-9.60815 57.0962 29.6687 0
-9.53596 57.6411 30.3931 0
-9.1637 59.1844 31.8434 0
-9.80415 58.7959 32.6482 0
-8.47286 59.4062 31.0501 0
-9.37543 58.4973 31.0356 0
-9.84773 57.3559 31.1828 0
-9.94651 57.8372 32.633 0
-9.88243 58.5845 33.2533 0
-10.106 56.1521 31.2631 0
-9.95046 57.0039 32.0282 0
-9.75557 56.6879 32.6353 0
-9.66065 55.5178 32.5961 0
-9.55343 56.4245 33.1169 0
-9.34965 59.4692 35.8596 0
-9.19263 59.6923 36.3719 0
-7.91109 61.7833 34.2198 0
-7.5195 61.7256 33.6478 0
-8.46901 61.211 33.5501 0
-9.4781 60.4068 33.7525 0
-9.49766 59.6162 35.2442 0
-9.46387 58.6564 35.0992 0
-8.86512 60.6106 35.0933 0
-9.51896 60.0357 34.5137 0
-9.77968 59.4051 33.8217 0
-9.48323 58.0104 34.3194 0
-9.29732 57.6612 34.9607 0
-9.71978 58.3326 33.7632 0
-9.47118 57.2325 33.6695 0
-9.19891 56.1589 33.599 0
-9.04852 58.4993 36.2226 0
-8.99222 59.8722 36.8394 0
-8.81747 60.077 37.3818 0
-8.92486 56.874 34.688 0
-9.00922 57.485 35.5181 0
-8.6557 54.9818 33.5635 0
-8.65734 55.8828 34.1073 0
-8.3255 55.7625 34.5883 0
-7.64483 54.8532 34.1521 0
-7.96281 55.8012 34.8906 0
-8.48901 57.7019 36.5513 0
-8.19503 57.8239 37.0436 0
-8.73956 57.5707 36.0333 0
-8.3025 56.7898 35.6896 0
-7.60576 55.9255 35.1232 0
-7.76661 56.8791 36.6359 0
-6.78584 54.9832 34.4826 0
-7.32113 55.9023 35.5638 0
-6.91053 55.8222 35.9387 0
-5.77406 54.6624 35.1082 0
-6.33879 55.8708 36.1896 0
-5.69568 55.9846 36.3191 0
-4.43118 54.9908 35.1847 0
-5.07045 55.9993 36.4112 0
5.24745 68.1053 26.0795 0
5.75475 69.4111 25.6672 0
4.24632 66.0881 27.1987 0
4.57371 67.0894 26.5509 0
4.50131 67.5451 26.5573 0
3.63312 67.1487 26.7665 0
4.2734 68.1064 26.4774 0
4.85468 64.6369 28.0536 0
4.37756 65.2487 27.7074 0
5.93158 64.1758 28.3267 0
5.32079 64.1648 28.3617 0
4.4045 64.3097 28.3214 0
3.99631 64.1621 28.3384 0
3.54242 64.6519 28.1743 0
3.4037 66.3399 27.254 0
3.02471 66.885 27.0549 0
3.7953 65.6516 27.5877 0
3.34075 65.4489 27.7699 0
3.00798 65.258 27.8587 0
2.41953 66.6238 26.9107 0
2.62025 67.4379 26.5297 0
2.59994 64.9903 27.4783 0
2.43194 65.821 27.1354 0
1.97527 66.3186 26.5369 0
1.46775 66.0071 26.0851 0
1.4279 66.8449 25.8536 0
7.47115 64.2624 27.4481 0
6.67316 64.2191 28.197 0
6.93766 63.9093 27.1613 0
6.49339 63.7093 26.4985 0
5.75192 63.7669 27.3835 0
5.79326 63.1319 24.8956 0
5.03356 63.2429 25.8485 0
5.52844 62.8365 23.9872 0
4.49479 62.7103 23.911 0
1.603 65.2595 26.2215 0
1.00927 65.7373 25.4988 0
2.80373 64.2611 27.6244 0
2.21585 64.7643 26.9268 0
1.81701 64.5476 26.3113 0
2.07562 63.9121 26.3055 0
1.45838 64.3731 25.5855 0
4.39842 63.736 28.3404 0
3.5705 64.0192 28.1591 0
5.45813 63.8975 28.3763 0
4.98538 63.7157 28.1769 0
4.59787 63.5634 27.5135 0
2.83982 63.6568 26.8176 0
2.53477 63.5419 25.9923 0
3.17612 63.8024 27.6058 0
3.67111 63.4902 27.3047 0
4.34168 63.4468 26.6191 0
3.07312 63.2045 25.4781 0
2.21414 63.3801 25.0543 0
4.01258 63.1388 25.7559 0
3.7314 62.973 24.7246 0
3.49359 62.7251 23.6466 0
0.561266 65.4207 24.893 0
0.344193 66.1793 24.8101 0
1.01737 64.1999 24.8272 0
0.756506 64.7428 24.9393 0
0.0701248 65.0709 24.2942 0
-0.439931 64.7711 23.6393 0
-0.660069 65.3619 23.6998 0
1.852 63.2225 23.9772 0
1.34778 63.6341 24.5898 0
3.24003 62.5062 22.4921 0
2.49996 62.8198 23.2766 0
1.57128 63.0728 22.7897 0
1.41591 62.9575 21.7709 0
0.735888 63.3395 22.4453 0
-0.227717 64.2218 23.543 0
-0.984439 64.322 23.0588 0
0.546224 63.9984 24.0455 0
0.219456 63.8136 23.0304 0
-0.0653391 63.5493 22.1023 0
-1.26866 64.0227 22.1854 0
-1.72046 64.4139 22.5974 0
-0.308719 63.2671 21.1817 0
-0.807815 63.6287 21.733 0
-1.50209 63.6044 21.3541 0
-1.84485 63.0345 20.635 0
-2.19253 63.5246 21.0513 0
-1.46868 62.5558 20.2241 0
-2.18566 62.3037 20.1498 0
0.316279 62.8846 20.611 0
-0.642977 62.7397 20.3709 0
-0.93326 62.1804 19.7012 0
2.06188 62.5002 21.0402 0
1.25354 62.8882 20.7716 0
4.00742 62.2833 21.9457 0
2.99461 62.38 21.5083 0
2.77818 62.2685 20.5355 0
3.2799 61.4749 20.4236 0
2.37649 61.6845 19.8484 0
0.490985 61.6581 19.366 0
0.903451 62.4053 19.9216 0
1.48435 61.8019 19.4639 0
4.99447 62.043 22.2062 0
4.28708 61.4046 20.5801 0
3.8294 60.7109 19.9914 0
4.70321 61.8551 21.3272 0
-2.86398 62.0937 20.0606 0
-3.83819 54.1122 34.0529 0
-3.28864 53.8733 34.2788 0
-5.18803 53.8026 33.948 0
-4.48879 54.0244 33.9692 0
-6.49774 54.0398 33.6723 0
-5.87661 53.8224 33.8566 0
-4.87072 53.2452 33.1155 0
-4.7097 52.6306 32.5182 0
-3.9866 52.5612 32.5295 0
-7.62814 54.119 33.3673 0
-7.07553 54.2098 33.4596 0
-8.8534 54.0879 33.0247 0
-8.2542 54.0359 33.2755 0
-7.57267 53.4382 32.7702 0
-7.47201 52.837 32.208 0
-6.80926 52.8196 32.3343 0
-5.39243 52.7604 32.4578 0
-4.64016 52.0513 32.0662 0
-6.24108 53.464 32.9523 0
-6.11306 52.7944 32.4234 0
-5.94968 52.4076 31.7873 0
-4.5403 51.6496 31.5233 0
-5.84547 52.0323 31.2044 0
-5.13759 51.9572 31.2801 0
-4.49922 51.1519 31.0707 0
-3.50237 53.2282 33.2577 0
-9.70684 54.4768 32.1461 0
-9.28234 54.309 32.586 0
-10.5575 55.393 30.422 0
-10.0688 54.7503 31.4838 0
-9.67605 53.8718 31.4523 0
-9.74055 53.4552 30.7786 0
-9.14446 53.2577 31.2814 0
-9.63581 56.6876 29.0381 0
-10.4142 55.9781 29.6139 0
-7.27293 58.1312 28.4356 0
-8.38874 57.4357 28.6339 0
-9.30226 56.4813 28.616 0
-8.99671 56.4725 28.2235 0
-9.93868 55.5079 28.7124 0
-10.1973 53.9551 30.112 0
-9.67371 53.178 30.2312 0
-10.523 55.0327 29.8096 0
-10.4349 54.7822 29.3268 0
-10.2931 54.6213 28.8496 0
-9.513 52.9669 29.7534 0
-9.04184 52.6385 30.1594 0
-10.1576 54.5156 28.3212 0
-9.8879 53.6111 29.0997 0
-9.40309 52.7263 29.2845 0
-9.45631 52.5601 28.7641 0
-8.98755 52.0019 29.2693 0
-5.08959 59.3742 28.407 0
-6.09513 58.6972 28.4185 0
-3.73824 61.4856 28.7315 0
-4.36548 60.4533 28.6074 0
-5.23143 59.8398 27.8474 0
-5.44268 60.2923 27.3363 0
-6.21145 59.5679 27.4551 0
-2.28587 63.1973 28.8442 0
-2.9743 62.3547 28.81 0
-1.11046 64.7667 29.0047 0
-1.64322 63.9859 28.9325 0
-2.7245 63.5935 28.0735 0
-3.09907 63.9879 27.4005 0
-3.67463 63.1515 27.4368 0
-4.87524 61.3145 27.4633 0
-5.65398 60.7828 26.8436 0
-4.04959 61.8694 28.0574 0
-4.3146 62.2759 27.4503 0
-4.59492 62.714 26.8059 0
-5.95303 61.2577 26.3218 0
-6.41514 60.2877 26.392 0
-4.93759 63.1592 26.1611 0
-5.45703 62.2533 26.2841 0
-6.2647 61.7897 25.7977 0
-6.50405 62.3032 25.2431 0
-6.97757 61.2113 25.353 0
-10.0341 53.4451 27.9191 0
-9.54072 52.3991 28.1916 0
-9.58508 55.5987 27.7296 0
-10.0549 54.5881 27.7503 0
-9.9019 54.7873 27.1372 0
-9.12371 56.2154 26.4545 0
-9.63079 55.0369 26.456 0
-8.24938 57.7371 27.778 0
-8.99565 56.7869 27.777 0
-7.23097 58.3759 27.9738 0
-7.20537 58.7719 27.5384 0
-7.18592 59.2486 27.08 0
-8.42374 57.2238 26.4918 0
-8.30447 57.5604 25.8707 0
-8.87569 57.0775 27.1556 0
-7.80026 58.2645 26.7499 0
-7.16087 59.5586 26.5164 0
-7.80403 58.9774 25.6181 0
-8.56004 58.0768 25.3358 0
-7.15952 59.8016 25.964 0
-7.39768 60.1563 25.432 0
-7.65463 60.5383 24.9208 0
-9.65417 52.4319 27.4402 0
-9.05844 51.6052 28.1418 0
-9.25348 55.4085 25.7622 0
-9.95021 53.7433 26.4057 0
-9.7315 52.5742 26.4352 0
-9.02605 52.8862 25.632 0
-8.97304 51.5616 26.4836 0
-8.62303 58.469 24.8861 0
-8.75819 57.02 25.3281 0
-7.76844 60.9767 24.42 0
-8.20197 59.7194 24.6392 0
-8.56688 58.7844 24.4763 0
-8.23328 58.8864 23.8048 0
-8.31251 57.6602 24.1327 0
-8.43414 54.2928 24.8662 0
-8.67685 55.7922 25.3595 0
-8.28043 56.1077 24.5877 0
-0.258092 66.261 29.1129 0
-0.675785 65.5311 29.1233 0
0.469638 67.798 28.9921 0
0.208781 66.9553 28.9513 0
-0.937497 66.7339 28.2966 0
-1.66135 67.1621 27.7581 0
-1.97233 66.3778 27.6831 0
1.02908 69.3349 28.9569 0
0.713051 68.6263 29.0603 0
1.89484 70.7078 28.4707 0
1.4304 70.1254 28.7048 0
0.30491 69.7404 28.1671 0
-0.275795 69.8167 27.4647 0
-0.701383 69.3154 27.7385 0
-1.36834 68.0196 27.7924 0
-2.36264 67.6 27.1853 0
-0.369705 68.4121 28.3708 0
-1.03751 68.6489 27.8539 0
-1.68391 68.8422 27.3497 0
-2.88369 67.7445 26.4197 0
-3.29904 67.1761 26.3642 0
-2.12257 68.8297 26.5991 0
-2.5562 68.3687 26.5349 0
-3.34528 67.8648 25.6051 0
-3.64677 67.8384 24.802 0
-4.03205 67.24 24.862 0
3.34102 70.6635 27.4972 0
2.61412 70.7348 27.9844 0
4.24941 70.9262 27.0021 0
3.77271 70.8642 27.2045 0
2.78265 70.4149 26.8974 0
2.26774 70.1074 26.2466 0
1.55098 70.4035 26.629 0
4.88231 70.9657 26.6718 0
4.51484 71.1134 26.8085 0
5.45308 70.0913 26.0561 0
4.86607 69.1884 26.3951 0
3.91097 68.6821 26.4296 0
2.89168 69.6941 26.2527 0
1.8126 69.4686 25.8696 0
3.92558 70.0674 26.5989 0
3.45173 69.2505 26.3108 0
2.86873 68.32 26.3621 0
1.57552 68.5996 25.64 0
0.90742 69.2236 25.4002 0
2.1165 67.9994 26.1077 0
1.4753 67.6525 25.8051 0
0.888846 67.3011 25.3403 0
-3.14805 68.168 24.7518 0
-3.77868 67.6792 24.0146 0
-1.66831 69.2272 26.2945 0
-2.39343 68.647 25.655 0
-2.6489 68.4921 24.6807 0
-2.14708 68.6812 24.7504 0
-2.68685 68.08 24.0415 0
0.225352 70.1908 27.2387 0
-0.778915 69.7485 26.7378 0
1.30053 70.6399 27.7506 0
0.790073 70.5527 27.0201 0
0.446912 70.2635 26.1576 0
-1.44719 69.3061 25.3652 0
-1.63725 68.8675 24.7776 0
-1.20186 69.6552 25.9191 0
-0.590448 69.8377 25.668 0
0.087889 69.9243 25.261 0
-0.66661 68.2363 24.8888 0
-1.33516 67.6671 24.492 0
0.168804 68.7612 25.0946 0
0.267453 67.7187 24.894 0
0.262857 66.8993 24.9227 0
-3.77313 67.3522 23.292 0
-4.1737 66.9094 23.2941 0
-2.59438 67.5643 23.4842 0
-3.19901 67.4789 23.3686 0
-3.51429 66.6513 22.7848 0
-3.29994 65.9759 22.3655 0
-3.84837 65.8783 22.0995 0
-1.09976 66.7336 24.1745 0
-1.84234 67.1446 23.8226 0
-0.363206 66.4219 24.5346 0
-0.863845 66.0411 23.9296 0
-1.41991 65.714 23.2486 0
-2.75097 66.0523 22.5495 0
-3.13065 65.3456 22.0223 0
