#!ascii - generated by CreateLabelFiles project 
1639 3125
-22.1987 91.055 -19.3356 0
-21.9584 90.4067 -19.0111 0
-22.4154 91.7105 -19.6419 0
-22.9565 91.1659 -20.3104 0
-23.4083 90.6614 -20.9055 0
-22.2045 90.0332 -19.7866 0
-21.4291 89.8096 -18.6856 0
-23.6237 90.2454 -21.5183 0
-22.8717 90.1887 -20.6961 0
-22.362 89.6863 -20.4692 0
-22.5352 89.3306 -20.9608 0
-21.8571 89.1547 -20.1121 0
-12.732 89.5074 -15.4625 0
-12.5109 89.0617 -14.9849 0
-14.1358 89.8892 -15.5657 0
-13.3521 89.6432 -15.8217 0
-14.0127 89.3463 -15.6423 0
-15.4626 89.23 -16.246 0
-14.9256 88.9764 -15.7501 0
-16.561 90.3103 -14.8884 0
-15.0876 90.148 -15.1559 0
-18.0969 90.5172 -14.6923 0
-18.894 90.1841 -15.7833 0
-19.6512 89.8889 -16.6176 0
-16.8797 89.4718 -16.5468 0
-17.5198 89.1222 -17.1294 0
-16.141 89.7083 -15.7854 0
-18.3884 89.6505 -16.4307 0
-20.2792 89.5375 -17.3207 0
-19.6986 88.7675 -17.5701 0
-18.1026 88.6509 -17.5215 0
-20.7 89.236 -18.1929 0
-21.0514 88.9494 -18.9593 0
-21.2488 88.6627 -19.6337 0
-13.6559 88.8168 -14.7474 0
-15.7676 88.6748 -16.1285 0
-14.7422 88.7768 -15.2819 0
-14.6571 88.4921 -14.9054 0
-15.5177 88.3493 -14.9659 0
-18.6344 88.243 -17.9611 0
-16.9521 88.5252 -16.9666 0
-21.5252 88.326 -20.0283 0
-20.5303 88.1454 -18.8174 0
-19.1299 87.8176 -18.2637 0
-19.5934 87.4449 -18.5657 0
-18.0906 87.85 -17.5468 0
-16.4066 88.3509 -15.6785 0
-16.2444 88.2035 -15.0628 0
-16.4998 88.4579 -16.3463 0
-17.0589 88.2175 -16.6425 0
-17.5287 87.8714 -16.906 0
-16.751 87.8755 -15.25 0
-17.9108 87.4794 -17.1451 0
-17.3506 87.6612 -16.1868 0
-17.1471 87.4453 -15.4823 0
-17.4547 87.0494 -15.7361 0
-17.9413 86.9145 -16.6747 0
-17.5907 86.7114 -16.0527 0
-18.9742 87.0714 -17.9906 0
-18.2842 87.1046 -17.3641 0
-18.4518 86.7376 -17.6693 0
-19.5201 86.4379 -18.5911 0
-18.6187 86.375 -17.9519 0
-21.2932 87.4225 -19.4412 0
-20.0266 87.1181 -18.7737 0
-22.3429 88.4272 -20.8818 0
-21.9069 87.9296 -20.2575 0
-22.2392 87.5781 -20.5055 0
-23.0105 87.7039 -21.3392 0
-22.3059 87.3823 -20.8637 0
-20.5379 86.6948 -19.5238 0
-20.5971 86.5719 -19.9675 0
-20.4126 86.8407 -19.0391 0
-21.5208 87.0346 -20.2869 0
-22.4506 87.1204 -21.189 0
-21.7912 86.5721 -20.8719 0
-20.6857 86.4147 -20.3457 0
-23.3815 87.083 -21.9594 0
-22.6505 86.8094 -21.4399 0
-22.9006 86.4873 -21.6478 0
-23.7201 86.4174 -22.4995 0
-23.1091 86.1598 -21.8915 0
-23.3465 89.3586 -21.6825 0
-22.8177 88.8881 -21.3066 0
-24.3352 90.2741 -22.335 0
-23.8666 89.7982 -22.0365 0
-24.1349 89.3752 -22.4145 0
-24.7758 89.4208 -23.1774 0
-24.3293 88.9725 -22.7855 0
-24.977 91.2768 -22.9254 0
-24.7064 90.7746 -22.6726 0
-25.2101 92.2284 -23.2903 0
-25.2086 91.7542 -23.1296 0
-25.5389 91.3358 -23.6455 0
-26.0064 91.4581 -24.2488 0
-25.8496 90.9396 -24.1152 0
-25.1623 89.9214 -23.569 0
-25.3646 89.5011 -23.9203 0
-24.9362 90.3453 -23.1396 0
-25.5107 90.4275 -23.8632 0
-26.0695 90.6404 -24.6808 0
-25.9685 89.6208 -24.7052 0
-25.5797 89.078 -24.242 0
-26.6844 90.8689 -25.1665 0
-26.3338 90.2934 -25.2484 0
-26.4761 89.8618 -25.2908 0
-27.0631 90.0908 -25.308 0
-26.559 89.434 -25.2488 0
-24.2416 86.7404 -23.1086 0
-23.9344 87.4142 -22.4589 0
-24.1127 87.0928 -22.7899 0
-24.6904 87.1033 -23.7018 0
-25.0703 87.496 -24.1614 0
-23.4667 88.1138 -21.853 0
-23.7214 87.7339 -22.1479 0
-23.1481 88.4968 -21.5884 0
-23.8889 88.5387 -22.3612 0
-24.5663 88.5747 -23.1146 0
-24.9161 87.845 -23.7812 0
-24.4034 87.7766 -22.9696 0
-24.7669 88.2004 -23.4361 0
-25.1328 88.639 -23.8769 0
-25.9453 88.2907 -24.7061 0
-25.7648 88.6847 -24.6146 0
-26.3556 88.7661 -24.9533 0
-25.0775 93.2172 -23.4656 0
-25.1006 92.7177 -23.4252 0
-25.3003 93.8549 -23.4639 0
-25.1894 93.5393 -23.4676 0
-25.6222 93.282 -23.9797 0
-26.0563 93.3421 -24.2848 0
-26.0022 92.8681 -24.3018 0
-25.6592 94.5863 -23.215 0
-25.3414 94.2922 -23.3853 0
-26.1338 95.3755 -22.7064 0
-25.9551 94.8832 -22.9914 0
-25.8154 94.931 -23.6733 0
-26.0667 93.829 -24.2492 0
-26.4153 93.4202 -24.4073 0
-25.5892 94.156 -23.9343 0
-25.9756 94.3099 -24.2086 0
-26.6486 93.0165 -24.3575 0
-27.7718 90.7572 -25.0981 0
-26.9981 91.3885 -24.8943 0
-27.4724 91.1103 -24.9995 0
-27.7406 91.2848 -24.874 0
-26.0642 91.9475 -24.3555 0
-26.5429 91.6782 -24.648 0
-25.5878 92.2836 -23.9277 0
-25.9618 92.3864 -24.2887 0
-26.2293 92.479 -24.4488 0
-26.921 91.9819 -24.607 0
-26.7841 91.8276 -24.7203 0
-26.5894 92.223 -24.5909 0
-26.5233 92.5465 -24.4001 0
-17.7279 86.3795 -16.359 0
-18.8176 86.094 -18.2807 0
-18.2021 86.201 -17.2641 0
-17.7283 85.9921 -16.7309 0
-17.6736 85.6062 -17.1181 0
-21.0032 86.1074 -20.5231 0
-19.8394 86.1353 -19.5002 0
-22.2987 85.9631 -21.2596 0
-21.299 85.8021 -20.648 0
-20.4986 85.5096 -19.7922 0
-18.407 85.5237 -17.8782 0
-17.7441 85.2473 -17.4227 0
-19.1017 85.8056 -18.5 0
-19.3632 85.5143 -18.7035 0
-19.6735 85.2409 -18.9723 0
-17.9356 84.9428 -17.6958 0
-18.8641 84.9439 -18.3893 0
-18.113 84.6425 -17.9667 0
-18.2906 84.335 -18.2583 0
-18.7484 99.8401 -12.7684 0
-19.1303 99.9751 -13.3794 0
-18.1783 99.46 -11.7004 0
-18.4642 99.6821 -12.1702 0
-17.5163 98.7443 -11.3874 0
-17.8564 99.1061 -11.5495 0
-17.7077 99.7954 -11.4108 0
-17.0496 100.168 -11.0385 0
-16.2208 98.2633 -10.7558 0
-16.9785 98.4628 -11.0842 0
-14.7301 98.0716 -10.3581 0
-15.4225 98.1563 -10.5315 0
-15.0453 98.6679 -10.7003 0
-13.8865 99.0442 -10.7851 0
-14.6069 99.1923 -10.9167 0
-16.2795 99.7807 -11.0816 0
-16.6947 99.051 -11.2255 0
-15.4102 99.427 -11.0637 0
-13.1655 98.1838 -10.0857 0
-14.0024 98.0822 -10.1599 0
-11.7613 98.2634 -9.97018 0
-12.3481 98.2717 -10.0062 0
-12.1114 98.6766 -10.2148 0
-11.3634 99.0297 -10.3505 0
-11.8758 99.1058 -10.4434 0
-10.7915 98.0696 -10.037 0
-11.2274 98.2434 -9.94396 0
-10.0379 97.7567 -10.1188 0
-10.388 97.9064 -10.112 0
-10.2528 98.1396 -10.2691 0
-9.76708 98.199 -10.4174 0
-10.1251 98.4104 -10.4746 0
-10.9094 98.8626 -10.3382 0
-11.0671 98.5424 -10.1174 0
-10.501 98.6367 -10.4102 0
-9.99927 98.7219 -10.725 0
-13.1546 99.0961 -10.6578 0
-13.5721 98.5833 -10.4185 0
-12.4336 99.1651 -10.5362 0
-18.2406 100.293 -12.1382 0
-9.41916 98.0237 -10.3062 0
-9.56893 97.8216 -10.1193 0
-8.31772 96.8095 -10.5407 0
-7.87715 96.4987 -10.6522 0
-8.65611 97.1087 -10.386 0
-7.77636 95.9905 -10.5924 0
-8.02349 95.8981 -10.3887 0
-7.71167 95.3606 -10.5538 0
-7.13228 92.8348 -8.43723 0
-7.09835 93.0896 -7.70681 0
-7.19829 92.7402 -9.7799 0
-7.14661 92.7117 -9.16194 0
-7.57933 94.5596 -10.4729 0
-7.78298 94.4228 -10.2574 0
-7.43212 93.0534 -9.91455 0
-7.45189 93.6312 -10.2818 0
-6.90071 93.1915 -7.05055 0
-6.97959 92.8999 -6.78745 0
-6.65061 92.8018 -6.21183 0
-6.6943 92.2889 -6.03292 0
-5.8835 91.5156 -5.30741 0
-5.89017 90.9498 -4.99395 0
-6.31351 92.0226 -5.53222 0
-5.28883 90.0087 -5.44161 0
-5.33545 89.368 -5.62246 0
-5.53151 88.7404 -5.93931 0
-4.89149 87.7586 -6.64929 0
-4.89071 87.2258 -6.87372 0
-4.76218 86.8353 -7.22401 0
-4.61757 86.3566 -7.78116 0
-4.47813 86.2531 -8.54715 0
-3.87438 85.8265 -9.38072 0
-4.25896 86.9013 -11.226 0
-4.31773 87.0122 -11.8482 0
-3.73241 85.8908 -9.84657 0
-4.20823 85.9418 -9.50916 0
-4.23402 86.6577 -10.6305 0
-3.84427 86.8022 -10.8946 0
-3.74215 86.197 -10.347 0
-4.71609 86.4342 -11.7275 0
-4.25661 85.5964 -12.5556 0
-4.33175 84.9632 -12.9449 0
-4.45892 86.1132 -12.2 0
-5.82599 82.6726 -13.502 0
-6.37731 81.9467 -13.8155 0
-4.60018 84.0609 -13.3228 0
-5.28285 83.3255 -13.1332 0
-13.8828 78.7636 -15.5223 0
-14.3316 78.2767 -14.8549 0
-13.718 79.354 -15.5994 0
-13.55 79.7965 -15.6221 0
-13.3873 80.2459 -15.6418 0
-12.9473 80.3799 -16.0165 0
-12.6193 80.2509 -15.7933 0
-12.1018 79.8779 -15.4323 0
-11.5473 79.5912 -15.0635 0
-10.7904 79.8515 -14.6886 0
-10.0338 80.0903 -14.3782 0
-9.30417 80.278 -14.1757 0
-8.57969 80.521 -13.9814 0
-7.76688 80.9876 -14.3237 0
-7.01035 81.3886 -14.0838 0
-14.6209 77.7372 -14.99 0
-15.2807 77.5955 -14.6504 0
-18.8302 78.8886 -17.7406 0
-18.6969 79.0984 -18.2458 0
-18.2801 79.7812 -18.1175 0
-17.887 80.4376 -17.9965 0
-17.7447 80.6908 -18.4996 0
-17.923 82.2731 -17.9373 0
-17.7246 81.8804 -18.3808 0
-17.9532 82.8749 -18.0315 0
-18.314 83.4553 -18.2395 0
-17.5398 81.3124 -18.4003 0
-15.6019 77.1135 -14.9215 0
-16.3798 76.9625 -14.698 0
-17.0818 76.9455 -14.7454 0
-17.4403 77.2576 -15.3534 0
-17.8427 77.5641 -16.145 0
-18.2463 77.9186 -17.0397 0
-18.5274 78.1703 -17.7143 0
-19.388 99.9187 -15.1616 0
-19.3095 100.017 -15.9194 0
-19.4638 100.159 -16.5319 0
-21.7922 100.313 -15.9971 0
-20.3348 99.9007 -16.5062 0
-26.129 96.5844 -21.5576 0
-25.8129 96.4912 -21.0655 0
-23.3338 99.7303 -16.0602 0
-24.2783 98.8124 -16.8927 0
-25.2185 98.4679 -17.479 0
-25.5812 97.857 -18.2024 0
-25.6871 97.4007 -19.1069 0
-25.685 97.04 -20.0788 0
-23.8345 86.0755 -22.7879 0
-26.888 89.5966 -25.2289 0
-24.3676 86.3776 -23.3917 0
-24.8203 86.7436 -24.0219 0
-25.1352 87.1549 -24.5566 0
-25.4297 87.5748 -25.0303 0
-25.3957 87.9133 -24.6109 0
-26.0433 87.9315 -24.9633 0
-26.5286 88.3566 -25.0011 0
-26.6847 88.9502 -25.1672 0
-26.086 95.2116 -23.4024 0
-25.9095 94.7406 -24.0613 0
-26.0934 95.0565 -23.8168 0
-26.4106 94.3129 -24.2142 0
-26.7706 93.4901 -24.3077 0
-26.9898 93.0667 -24.0886 0
-26.8239 93.987 -24.1953 0
-26.2619 96.0348 -22.3609 0
-26.296 95.6478 -23.0968 0
-27.4891 90.2466 -25.0104 0
-27.9734 90.8645 -24.7964 0
-27.7284 91.3535 -24.6339 0
-27.3366 91.7209 -24.6568 0
-27.1324 92.0974 -24.4368 0
-26.8358 92.3287 -24.4113 0
-26.8689 92.6149 -24.1554 0
-23.2605 85.8124 -22.1145 0
-22.4745 85.6303 -21.4583 0
-21.5757 85.4894 -20.8017 0
-20.7688 85.2562 -20.0588 0
-19.9311 85.0131 -19.3009 0
-18.4403 83.9998 -18.5341 0
-19.3102 84.3957 -19.0074 0
-20.166 84.78 -19.6133 0
-19.3412 100.347 -14.5282 0
-19.2325 100.16 -13.9451 0
-18.5344 100.448 -12.707 0
-19.0692 100.545 -13.2677 0
-17.4399 100.441 -11.3414 0
-16.875 100.762 -11.2395 0
-13.7626 99.5791 -11.0908 0
-16.1912 100.27 -11.3576 0
-15.3469 99.9242 -11.3795 0
-14.4752 99.7483 -11.244 0
-11.2322 99.4562 -10.643 0
-9.63886 98.4704 -10.6512 0
-10.7789 99.2584 -10.614 0
-10.3814 98.9672 -10.6712 0
-9.85575 99.0528 -10.9885 0
-9.48967 98.7873 -10.892 0
-13.0492 99.644 -10.9385 0
-12.3216 99.6929 -10.7928 0
-11.7508 99.5806 -10.7263 0
-18.0198 100.926 -12.0599 0
-17.7244 100.69 -11.6956 0
-9.28243 98.2323 -10.5536 0
-8.97713 97.9668 -10.4387 0
-9.104 97.8216 -10.179 0
-8.78823 97.5384 -10.3571 0
371 1488 1489 0
370 1490 1488 0
370 1488 371 0
91 370 371 0
371 1489 1491 0
371 1491 1492 0
91 371 1492 0
373 1492 1493 0
372 91 1492 0
372 1492 373 0
24 372 373 0
376 374 1490 0
375 92 374 0
375 374 376 0
94 375 376 0
379 377 92 0
378 0 377 0
378 377 379 0
93 378 379 0
380 375 94 0
379 92 375 0
379 375 380 0
93 379 380 0
382 380 94 0
381 93 380 0
381 380 382 0
23 381 382 0
384 372 24 0
383 91 372 0
383 372 384 0
95 383 384 0
385 370 91 0
376 1490 370 0
376 370 385 0
94 376 385 0
386 383 95 0
385 91 383 0
385 383 386 0
94 385 386 0
387 386 95 0
382 94 386 0
382 386 387 0
23 382 387 0
389 384 24 0
388 95 384 0
388 384 389 0
97 388 389 0
391 387 95 0
390 23 387 0
390 387 391 0
96 390 391 0
392 388 97 0
391 95 388 0
391 388 392 0
96 391 392 0
394 392 97 0
393 96 392 0
393 392 394 0
7 393 394 0
99 1494 1495 0
98 1496 1497 0
395 1494 99 0
1497 1494 395 0
98 1497 395 0
397 395 99 0
396 98 395 0
396 395 397 0
25 396 397 0
373 1493 1498 0
373 1498 1499 0
24 373 1499 0
399 396 25 0
398 98 396 0
398 396 399 0
100 398 399 0
1500 1496 98 0
400 398 100 0
1500 98 398 0
1500 398 400 0
1501 1500 400 0
401 400 100 0
1499 1501 400 0
1499 400 401 0
24 1499 401 0
403 399 25 0
402 100 399 0
402 399 403 0
101 402 403 0
404 401 100 0
389 24 401 0
389 401 404 0
97 389 404 0
405 402 101 0
404 100 402 0
404 402 405 0
97 404 405 0
406 405 101 0
394 97 405 0
394 405 406 0
7 394 406 0
407 99 1495 0
407 1495 1502 0
1503 407 1502 0
409 397 99 0
408 25 397 0
408 397 409 0
102 408 409 0
410 407 1503 0
409 99 407 0
409 407 410 0
102 409 410 0
412 410 1503 0
411 102 410 0
411 410 412 0
27 411 412 0
414 403 25 0
413 101 403 0
413 403 414 0
104 413 414 0
416 406 101 0
415 7 406 0
415 406 416 0
103 415 416 0
417 413 104 0
416 101 413 0
416 413 417 0
103 416 417 0
419 417 104 0
418 103 417 0
418 417 419 0
26 418 419 0
421 411 27 0
420 102 411 0
420 411 421 0
105 420 421 0
422 408 102 0
414 25 408 0
414 408 422 0
104 414 422 0
423 420 105 0
422 102 420 0
422 420 423 0
104 422 423 0
424 423 105 0
419 104 423 0
419 423 424 0
26 419 424 0
426 421 27 0
425 105 421 0
425 421 426 0
107 425 426 0
428 424 105 0
427 26 424 0
427 424 428 0
106 427 428 0
429 425 107 0
428 105 425 0
428 425 429 0
106 428 429 0
431 429 107 0
430 106 429 0
430 429 431 0
2 430 431 0
412 1503 1504 0
412 1504 1505 0
27 412 1505 0
108 1506 1507 0
1508 1506 108 0
432 1508 108 0
1505 1508 432 0
27 1505 432 0
434 1507 1509 0
433 108 1507 0
433 1507 434 0
109 433 434 0
435 432 108 0
426 27 432 0
426 432 435 0
107 426 435 0
436 433 109 0
435 108 433 0
435 433 436 0
107 435 436 0
437 436 109 0
431 107 436 0
431 436 437 0
2 431 437 0
1510 434 1509 0
438 109 434 0
438 434 1510 0
1511 438 1510 0
440 437 109 0
439 2 437 0
439 437 440 0
110 439 440 0
441 438 1511 0
440 109 438 0
440 438 441 0
110 440 441 0
443 441 1511 0
442 110 441 0
442 441 443 0
28 442 443 0
443 1511 1512 0
443 1512 1513 0
28 443 1513 0
1514 28 1513 0
444 28 1514 0
444 1514 1515 0
111 444 1515 0
111 1515 1516 0
446 1516 1517 0
445 111 1516 0
445 1516 446 0
30 445 446 0
448 442 28 0
447 110 442 0
447 442 448 0
113 447 448 0
450 439 110 0
449 2 439 0
449 439 450 0
112 449 450 0
451 447 113 0
450 110 447 0
450 447 451 0
112 450 451 0
453 451 113 0
452 112 451 0
452 451 453 0
29 452 453 0
455 445 30 0
454 111 445 0
454 445 455 0
114 454 455 0
456 444 111 0
448 28 444 0
448 444 456 0
113 448 456 0
457 454 114 0
456 111 454 0
456 454 457 0
113 456 457 0
458 457 114 0
453 113 457 0
453 457 458 0
29 453 458 0
460 455 30 0
459 114 455 0
459 455 460 0
116 459 460 0
462 458 114 0
461 29 458 0
461 458 462 0
115 461 462 0
463 459 116 0
462 114 459 0
462 459 463 0
115 462 463 0
465 463 116 0
464 115 463 0
464 463 465 0
8 464 465 0
31 1518 1519 0
446 1517 1520 0
446 1520 1521 0
30 446 1521 0
466 1518 31 0
1522 1518 466 0
117 1522 466 0
467 1522 117 0
1523 1522 467 0
1524 1523 467 0
468 467 117 0
1521 1524 467 0
1521 467 468 0
30 1521 468 0
470 466 31 0
469 117 466 0
469 466 470 0
118 469 470 0
471 468 117 0
460 30 468 0
460 468 471 0
116 460 471 0
472 469 118 0
471 117 469 0
471 469 472 0
116 471 472 0
473 472 118 0
465 116 472 0
465 472 473 0
8 465 473 0
1525 31 1519 0
475 470 31 0
474 118 470 0
474 470 475 0
120 474 475 0
477 473 118 0
476 8 473 0
476 473 477 0
119 476 477 0
478 474 120 0
477 118 474 0
477 474 478 0
119 477 478 0
480 478 120 0
479 119 478 0
479 478 480 0
32 479 480 0
482 1526 1527 0
481 1528 1526 0
481 1526 482 0
121 481 482 0
483 1525 1528 0
475 31 1525 0
475 1525 483 0
120 475 483 0
484 481 121 0
483 1528 481 0
483 481 484 0
120 483 484 0
485 484 121 0
480 120 484 0
480 484 485 0
32 480 485 0
487 482 1527 0
486 121 482 0
486 482 487 0
123 486 487 0
489 485 121 0
488 32 485 0
488 485 489 0
122 488 489 0
490 486 123 0
489 121 486 0
489 486 490 0
122 489 490 0
492 490 123 0
491 122 490 0
491 490 492 0
4 491 492 0
494 430 2 0
493 106 430 0
493 430 494 0
125 493 494 0
496 427 106 0
495 26 427 0
495 427 496 0
124 495 496 0
497 493 125 0
496 106 493 0
496 493 497 0
124 496 497 0
499 497 125 0
498 124 497 0
498 497 499 0
34 498 499 0
501 418 26 0
500 103 418 0
500 418 501 0
127 500 501 0
503 415 103 0
502 7 415 0
502 415 503 0
126 502 503 0
504 500 127 0
503 103 500 0
503 500 504 0
126 503 504 0
506 504 127 0
505 126 504 0
505 504 506 0
33 505 506 0
508 498 34 0
507 124 498 0
507 498 508 0
128 507 508 0
509 495 124 0
501 26 495 0
501 495 509 0
127 501 509 0
510 507 128 0
509 124 507 0
509 507 510 0
127 509 510 0
511 510 128 0
506 127 510 0
506 510 511 0
33 506 511 0
513 508 34 0
512 128 508 0
512 508 513 0
130 512 513 0
515 511 128 0
514 33 511 0
514 511 515 0
129 514 515 0
516 512 130 0
515 128 512 0
515 512 516 0
129 515 516 0
518 516 130 0
517 129 516 0
517 516 518 0
10 517 518 0
520 393 7 0
519 96 393 0
519 393 520 0
132 519 520 0
522 390 96 0
521 23 390 0
521 390 522 0
131 521 522 0
523 519 132 0
522 96 519 0
522 519 523 0
131 522 523 0
525 523 132 0
524 131 523 0
524 523 525 0
36 524 525 0
527 381 23 0
526 93 381 0
526 381 527 0
134 526 527 0
529 378 93 0
528 0 378 0
528 378 529 0
133 528 529 0
530 526 134 0
529 93 526 0
529 526 530 0
133 529 530 0
532 530 134 0
531 133 530 0
531 530 532 0
35 531 532 0
534 524 36 0
533 131 524 0
533 524 534 0
135 533 534 0
535 521 131 0
527 23 521 0
527 521 535 0
134 527 535 0
536 533 135 0
535 131 533 0
535 533 536 0
134 535 536 0
537 536 135 0
532 134 536 0
532 536 537 0
35 532 537 0
539 534 36 0
538 135 534 0
538 534 539 0
137 538 539 0
541 537 135 0
540 35 537 0
540 537 541 0
136 540 541 0
542 538 137 0
541 135 538 0
541 538 542 0
136 541 542 0
544 542 137 0
543 136 542 0
543 542 544 0
9 543 544 0
546 517 10 0
545 129 517 0
545 517 546 0
139 545 546 0
548 514 129 0
547 33 514 0
547 514 548 0
138 547 548 0
549 545 139 0
548 129 545 0
548 545 549 0
138 548 549 0
551 549 139 0
550 138 549 0
550 549 551 0
37 550 551 0
553 505 33 0
552 126 505 0
552 505 553 0
140 552 553 0
554 502 126 0
520 7 502 0
520 502 554 0
132 520 554 0
555 552 140 0
554 126 552 0
554 552 555 0
132 554 555 0
556 555 140 0
525 132 555 0
525 555 556 0
36 525 556 0
558 550 37 0
557 138 550 0
557 550 558 0
141 557 558 0
559 547 138 0
553 33 547 0
553 547 559 0
140 553 559 0
560 557 141 0
559 138 557 0
559 557 560 0
140 559 560 0
561 560 141 0
556 140 560 0
556 560 561 0
36 556 561 0
563 558 37 0
562 141 558 0
562 558 563 0
142 562 563 0
564 561 141 0
539 36 561 0
539 561 564 0
137 539 564 0
565 562 142 0
564 141 562 0
564 562 565 0
137 564 565 0
566 565 142 0
544 137 565 0
544 565 566 0
9 544 566 0
568 546 10 0
567 139 546 0
567 546 568 0
144 567 568 0
570 551 139 0
569 37 551 0
569 551 570 0
143 569 570 0
571 567 144 0
570 139 567 0
570 567 571 0
143 570 571 0
573 571 144 0
572 143 571 0
572 571 573 0
39 572 573 0
575 563 37 0
574 142 563 0
574 563 575 0
146 574 575 0
577 566 142 0
576 9 566 0
576 566 577 0
145 576 577 0
578 574 146 0
577 142 574 0
577 574 578 0
145 577 578 0
580 578 146 0
579 145 578 0
579 578 580 0
38 579 580 0
582 572 39 0
581 143 572 0
581 572 582 0
147 581 582 0
583 569 143 0
575 37 569 0
575 569 583 0
146 575 583 0
584 581 147 0
583 143 581 0
583 581 584 0
146 583 584 0
585 584 147 0
580 146 584 0
580 584 585 0
38 580 585 0
587 582 39 0
586 147 582 0
586 582 587 0
149 586 587 0
589 585 147 0
588 38 585 0
588 585 589 0
148 588 589 0
590 586 149 0
589 147 586 0
589 586 590 0
148 589 590 0
592 590 149 0
591 148 590 0
591 590 592 0
3 591 592 0
594 491 4 0
593 122 491 0
593 491 594 0
151 593 594 0
596 488 122 0
595 32 488 0
595 488 596 0
150 595 596 0
597 593 151 0
596 122 593 0
596 593 597 0
150 596 597 0
599 597 151 0
598 150 597 0
598 597 599 0
41 598 599 0
601 479 32 0
600 119 479 0
600 479 601 0
153 600 601 0
603 476 119 0
602 8 476 0
602 476 603 0
152 602 603 0
604 600 153 0
603 119 600 0
603 600 604 0
152 603 604 0
606 604 153 0
605 152 604 0
605 604 606 0
40 605 606 0
608 598 41 0
607 150 598 0
607 598 608 0
154 607 608 0
609 595 150 0
601 32 595 0
601 595 609 0
153 601 609 0
610 607 154 0
609 150 607 0
609 607 610 0
153 609 610 0
611 610 154 0
606 153 610 0
606 610 611 0
40 606 611 0
613 608 41 0
612 154 608 0
612 608 613 0
156 612 613 0
615 611 154 0
614 40 611 0
614 611 615 0
155 614 615 0
616 612 156 0
615 154 612 0
615 612 616 0
155 615 616 0
618 616 156 0
617 155 616 0
617 616 618 0
11 617 618 0
620 464 8 0
619 115 464 0
619 464 620 0
158 619 620 0
622 461 115 0
621 29 461 0
621 461 622 0
157 621 622 0
623 619 158 0
622 115 619 0
622 619 623 0
157 622 623 0
625 623 158 0
624 157 623 0
624 623 625 0
42 624 625 0
627 452 29 0
626 112 452 0
626 452 627 0
159 626 627 0
628 449 112 0
494 2 449 0
494 449 628 0
125 494 628 0
629 626 159 0
628 112 626 0
628 626 629 0
125 628 629 0
630 629 159 0
499 125 629 0
499 629 630 0
34 499 630 0
632 624 42 0
631 157 624 0
631 624 632 0
160 631 632 0
633 621 157 0
627 29 621 0
627 621 633 0
159 627 633 0
634 631 160 0
633 157 631 0
633 631 634 0
159 633 634 0
635 634 160 0
630 159 634 0
630 634 635 0
34 630 635 0
637 632 42 0
636 160 632 0
636 632 637 0
161 636 637 0
638 635 160 0
513 34 635 0
513 635 638 0
130 513 638 0
639 636 161 0
638 160 636 0
638 636 639 0
130 638 639 0
640 639 161 0
518 130 639 0
518 639 640 0
10 518 640 0
642 617 11 0
641 155 617 0
641 617 642 0
163 641 642 0
644 614 155 0
643 40 614 0
643 614 644 0
162 643 644 0
645 641 163 0
644 155 641 0
644 641 645 0
162 644 645 0
647 645 163 0
646 162 645 0
646 645 647 0
43 646 647 0
649 605 40 0
648 152 605 0
648 605 649 0
164 648 649 0
650 602 152 0
620 8 602 0
620 602 650 0
158 620 650 0
651 648 164 0
650 152 648 0
650 648 651 0
158 650 651 0
652 651 164 0
625 158 651 0
625 651 652 0
42 625 652 0
654 646 43 0
653 162 646 0
653 646 654 0
165 653 654 0
655 643 162 0
649 40 643 0
649 643 655 0
164 649 655 0
656 653 165 0
655 162 653 0
655 653 656 0
164 655 656 0
657 656 165 0
652 164 656 0
652 656 657 0
42 652 657 0
659 654 43 0
658 165 654 0
658 654 659 0
166 658 659 0
660 657 165 0
637 42 657 0
637 657 660 0
161 637 660 0
661 658 166 0
660 165 658 0
660 658 661 0
161 660 661 0
662 661 166 0
640 161 661 0
640 661 662 0
10 640 662 0
664 642 11 0
663 163 642 0
663 642 664 0
168 663 664 0
666 647 163 0
665 43 647 0
665 647 666 0
167 665 666 0
667 663 168 0
666 163 663 0
666 663 667 0
167 666 667 0
669 667 168 0
668 167 667 0
668 667 669 0
44 668 669 0
671 659 43 0
670 166 659 0
670 659 671 0
169 670 671 0
672 662 166 0
568 10 662 0
568 662 672 0
144 568 672 0
673 670 169 0
672 166 670 0
672 670 673 0
144 672 673 0
674 673 169 0
573 144 673 0
573 673 674 0
39 573 674 0
676 668 44 0
675 167 668 0
675 668 676 0
170 675 676 0
677 665 167 0
671 43 665 0
671 665 677 0
169 671 677 0
678 675 170 0
677 167 675 0
677 675 678 0
169 677 678 0
679 678 170 0
674 169 678 0
674 678 679 0
39 674 679 0
681 676 44 0
680 170 676 0
680 676 681 0
171 680 681 0
682 679 170 0
587 39 679 0
587 679 682 0
149 587 682 0
683 680 171 0
682 170 680 0
682 680 683 0
149 682 683 0
684 683 171 0
592 149 683 0
592 683 684 0
3 592 684 0
686 594 4 0
685 151 594 0
685 594 686 0
173 685 686 0
688 599 151 0
687 41 599 0
687 599 688 0
172 687 688 0
689 685 173 0
688 151 685 0
688 685 689 0
172 688 689 0
691 689 173 0
690 172 689 0
690 689 691 0
46 690 691 0
693 613 41 0
692 156 613 0
692 613 693 0
175 692 693 0
695 618 156 0
694 11 618 0
694 618 695 0
174 694 695 0
696 692 175 0
695 156 692 0
695 692 696 0
174 695 696 0
698 696 175 0
697 174 696 0
697 696 698 0
45 697 698 0
700 690 46 0
699 172 690 0
699 690 700 0
176 699 700 0
701 687 172 0
693 41 687 0
693 687 701 0
175 693 701 0
702 699 176 0
701 172 699 0
701 699 702 0
175 701 702 0
703 702 176 0
698 175 702 0
698 702 703 0
45 698 703 0
705 700 46 0
704 176 700 0
704 700 705 0
178 704 705 0
707 703 176 0
706 45 703 0
706 703 707 0
177 706 707 0
708 704 178 0
707 176 704 0
707 704 708 0
177 707 708 0
710 708 178 0
709 177 708 0
709 708 710 0
13 709 710 0
712 664 11 0
711 168 664 0
711 664 712 0
180 711 712 0
714 669 168 0
713 44 669 0
713 669 714 0
179 713 714 0
715 711 180 0
714 168 711 0
714 711 715 0
179 714 715 0
717 715 180 0
716 179 715 0
716 715 717 0
48 716 717 0
719 681 44 0
718 171 681 0
718 681 719 0
182 718 719 0
721 684 171 0
720 3 684 0
720 684 721 0
181 720 721 0
722 718 182 0
721 171 718 0
721 718 722 0
181 721 722 0
724 722 182 0
723 181 722 0
723 722 724 0
47 723 724 0
726 716 48 0
725 179 716 0
725 716 726 0
183 725 726 0
727 713 179 0
719 44 713 0
719 713 727 0
182 719 727 0
728 725 183 0
727 179 725 0
727 725 728 0
182 727 728 0
729 728 183 0
724 182 728 0
724 728 729 0
47 724 729 0
731 726 48 0
730 183 726 0
730 726 731 0
185 730 731 0
733 729 183 0
732 47 729 0
732 729 733 0
184 732 733 0
734 730 185 0
733 183 730 0
733 730 734 0
184 733 734 0
736 734 185 0
735 184 734 0
735 734 736 0
12 735 736 0
738 709 13 0
737 177 709 0
737 709 738 0
187 737 738 0
740 706 177 0
739 45 706 0
739 706 740 0
186 739 740 0
741 737 187 0
740 177 737 0
740 737 741 0
186 740 741 0
743 741 187 0
742 186 741 0
742 741 743 0
49 742 743 0
745 697 45 0
744 174 697 0
744 697 745 0
188 744 745 0
746 694 174 0
712 11 694 0
712 694 746 0
180 712 746 0
747 744 188 0
746 174 744 0
746 744 747 0
180 746 747 0
748 747 188 0
717 180 747 0
717 747 748 0
48 717 748 0
750 742 49 0
749 186 742 0
749 742 750 0
189 749 750 0
751 739 186 0
745 45 739 0
745 739 751 0
188 745 751 0
752 749 189 0
751 186 749 0
751 749 752 0
188 751 752 0
753 752 189 0
748 188 752 0
748 752 753 0
48 748 753 0
755 750 49 0
754 189 750 0
754 750 755 0
190 754 755 0
756 753 189 0
731 48 753 0
731 753 756 0
185 731 756 0
757 754 190 0
756 189 754 0
756 754 757 0
185 756 757 0
758 757 190 0
736 185 757 0
736 757 758 0
12 736 758 0
760 738 13 0
759 187 738 0
759 738 760 0
192 759 760 0
762 743 187 0
761 49 743 0
761 743 762 0
191 761 762 0
763 759 192 0
762 187 759 0
762 759 763 0
191 762 763 0
765 763 192 0
764 191 763 0
764 763 765 0
51 764 765 0
767 755 49 0
766 190 755 0
766 755 767 0
194 766 767 0
769 758 190 0
768 12 758 0
768 758 769 0
193 768 769 0
770 766 194 0
769 190 766 0
769 766 770 0
193 769 770 0
772 770 194 0
771 193 770 0
771 770 772 0
50 771 772 0
774 764 51 0
773 191 764 0
773 764 774 0
195 773 774 0
775 761 191 0
767 49 761 0
767 761 775 0
194 767 775 0
776 773 195 0
775 191 773 0
775 773 776 0
194 775 776 0
777 776 195 0
772 194 776 0
772 776 777 0
50 772 777 0
779 774 51 0
778 195 774 0
778 774 779 0
197 778 779 0
781 777 195 0
780 50 777 0
780 777 781 0
196 780 781 0
782 778 197 0
781 195 778 0
781 778 782 0
196 781 782 0
784 782 197 0
783 196 782 0
783 782 784 0
1 783 784 0
198 1529 1530 0
487 1527 1531 0
487 1531 1532 0
123 487 1532 0
785 1529 198 0
1532 1529 785 0
123 1532 785 0
786 785 198 0
492 123 785 0
492 785 786 0
4 492 786 0
199 1533 1534 0
1535 1533 199 0
787 1535 199 0
1536 1535 787 0
52 1536 787 0
1537 1536 52 0
789 1537 52 0
788 1538 1537 0
788 1537 789 0
200 788 789 0
790 788 200 0
1539 1538 788 0
1539 788 790 0
1540 1539 790 0
792 790 200 0
791 1540 790 0
791 790 792 0
14 791 792 0
793 791 14 0
1541 1540 791 0
1541 791 793 0
1542 1541 793 0
795 793 14 0
794 1542 793 0
794 793 795 0
201 794 795 0
796 794 201 0
1543 1542 794 0
1543 794 796 0
1544 1543 796 0
798 796 201 0
797 1544 796 0
797 796 798 0
53 797 798 0
799 797 53 0
1545 1544 797 0
1545 797 799 0
202 1545 799 0
1546 1545 202 0
1547 1546 202 0
801 799 53 0
800 202 799 0
800 799 801 0
203 800 801 0
802 1547 202 0
1530 1547 802 0
198 1530 802 0
803 800 203 0
802 202 800 0
802 800 803 0
198 802 803 0
804 803 203 0
786 198 803 0
786 803 804 0
4 786 804 0
806 1534 1548 0
805 199 1534 0
805 1534 806 0
205 805 806 0
808 787 199 0
807 52 787 0
807 787 808 0
204 807 808 0
809 805 205 0
808 199 805 0
808 805 809 0
204 808 809 0
811 809 205 0
810 204 809 0
810 809 811 0
55 810 811 0
813 789 52 0
812 200 789 0
812 789 813 0
207 812 813 0
815 792 200 0
814 14 792 0
814 792 815 0
206 814 815 0
816 812 207 0
815 200 812 0
815 812 816 0
206 815 816 0
818 816 207 0
817 206 816 0
817 816 818 0
54 817 818 0
820 810 55 0
819 204 810 0
819 810 820 0
208 819 820 0
821 807 204 0
813 52 807 0
813 807 821 0
207 813 821 0
822 819 208 0
821 204 819 0
821 819 822 0
207 821 822 0
823 822 208 0
818 207 822 0
818 822 823 0
54 818 823 0
825 820 55 0
824 208 820 0
824 820 825 0
210 824 825 0
827 823 208 0
826 54 823 0
826 823 827 0
209 826 827 0
828 824 210 0
827 208 824 0
827 824 828 0
209 827 828 0
830 828 210 0
829 209 828 0
829 828 830 0
15 829 830 0
832 795 14 0
831 201 795 0
831 795 832 0
212 831 832 0
834 798 201 0
833 53 798 0
833 798 834 0
211 833 834 0
835 831 212 0
834 201 831 0
834 831 835 0
211 834 835 0
837 835 212 0
836 211 835 0
836 835 837 0
56 836 837 0
839 801 53 0
838 203 801 0
838 801 839 0
213 838 839 0
840 804 203 0
686 4 804 0
686 804 840 0
173 686 840 0
841 838 213 0
840 203 838 0
840 838 841 0
173 840 841 0
842 841 213 0
691 173 841 0
691 841 842 0
46 691 842 0
844 836 56 0
843 211 836 0
843 836 844 0
214 843 844 0
845 833 211 0
839 53 833 0
839 833 845 0
213 839 845 0
846 843 214 0
845 211 843 0
845 843 846 0
213 845 846 0
847 846 214 0
842 213 846 0
842 846 847 0
46 842 847 0
849 844 56 0
848 214 844 0
848 844 849 0
215 848 849 0
850 847 214 0
705 46 847 0
705 847 850 0
178 705 850 0
851 848 215 0
850 214 848 0
850 848 851 0
178 850 851 0
852 851 215 0
710 178 851 0
710 851 852 0
13 710 852 0
854 829 15 0
853 209 829 0
853 829 854 0
217 853 854 0
856 826 209 0
855 54 826 0
855 826 856 0
216 855 856 0
857 853 217 0
856 209 853 0
856 853 857 0
216 856 857 0
859 857 217 0
858 216 857 0
858 857 859 0
57 858 859 0
861 817 54 0
860 206 817 0
860 817 861 0
218 860 861 0
862 814 206 0
832 14 814 0
832 814 862 0
212 832 862 0
863 860 218 0
862 206 860 0
862 860 863 0
212 862 863 0
864 863 218 0
837 212 863 0
837 863 864 0
56 837 864 0
866 858 57 0
865 216 858 0
865 858 866 0
219 865 866 0
867 855 216 0
861 54 855 0
861 855 867 0
218 861 867 0
868 865 219 0
867 216 865 0
867 865 868 0
218 867 868 0
869 868 219 0
864 218 868 0
864 868 869 0
56 864 869 0
871 866 57 0
870 219 866 0
870 866 871 0
220 870 871 0
872 869 219 0
849 56 869 0
849 869 872 0
215 849 872 0
873 870 220 0
872 219 870 0
872 870 873 0
215 872 873 0
874 873 220 0
852 215 873 0
852 873 874 0
13 852 874 0
876 854 15 0
875 217 854 0
875 854 876 0
222 875 876 0
878 859 217 0
877 57 859 0
877 859 878 0
221 877 878 0
879 875 222 0
878 217 875 0
878 875 879 0
221 878 879 0
881 879 222 0
880 221 879 0
880 879 881 0
58 880 881 0
883 871 57 0
882 220 871 0
882 871 883 0
223 882 883 0
884 874 220 0
760 13 874 0
760 874 884 0
192 760 884 0
885 882 223 0
884 220 882 0
884 882 885 0
192 884 885 0
886 885 223 0
765 192 885 0
765 885 886 0
51 765 886 0
888 880 58 0
887 221 880 0
887 880 888 0
224 887 888 0
889 877 221 0
883 57 877 0
883 877 889 0
223 883 889 0
890 887 224 0
889 221 887 0
889 887 890 0
223 889 890 0
891 890 224 0
886 223 890 0
886 890 891 0
51 886 891 0
893 888 58 0
892 224 888 0
892 888 893 0
225 892 893 0
894 891 224 0
779 51 891 0
779 891 894 0
197 779 894 0
895 892 225 0
894 224 892 0
894 892 895 0
197 894 895 0
896 895 225 0
784 197 895 0
784 895 896 0
1 784 896 0
1549 806 1548 0
897 205 806 0
897 806 1549 0
227 897 1549 0
899 811 205 0
898 55 811 0
898 811 899 0
226 898 899 0
900 897 227 0
899 205 897 0
899 897 900 0
226 899 900 0
902 900 227 0
901 226 900 0
901 900 902 0
60 901 902 0
904 825 55 0
903 210 825 0
903 825 904 0
229 903 904 0
906 830 210 0
905 15 830 0
905 830 906 0
228 905 906 0
907 903 229 0
906 210 903 0
906 903 907 0
228 906 907 0
909 907 229 0
908 228 907 0
908 907 909 0
59 908 909 0
911 901 60 0
910 226 901 0
910 901 911 0
230 910 911 0
912 898 226 0
904 55 898 0
904 898 912 0
229 904 912 0
913 910 230 0
912 226 910 0
912 910 913 0
229 912 913 0
914 913 230 0
909 229 913 0
909 913 914 0
59 909 914 0
916 911 60 0
915 230 911 0
915 911 916 0
232 915 916 0
918 914 230 0
917 59 914 0
917 914 918 0
231 917 918 0
919 915 232 0
918 230 915 0
918 915 919 0
231 918 919 0
921 919 232 0
920 231 919 0
920 919 921 0
1550 920 921 0
923 876 15 0
922 222 876 0
922 876 923 0
234 922 923 0
925 881 222 0
924 58 881 0
924 881 925 0
233 924 925 0
926 922 234 0
925 222 922 0
925 922 926 0
233 925 926 0
928 926 234 0
927 233 926 0
927 926 928 0
62 927 928 0
930 893 58 0
929 225 893 0
929 893 930 0
236 929 930 0
932 896 225 0
931 1 896 0
931 896 932 0
235 931 932 0
933 929 236 0
932 225 929 0
932 929 933 0
235 932 933 0
935 933 236 0
934 235 933 0
934 933 935 0
61 934 935 0
937 927 62 0
936 233 927 0
936 927 937 0
237 936 937 0
938 924 233 0
930 58 924 0
930 924 938 0
236 930 938 0
939 936 237 0
938 233 936 0
938 936 939 0
236 938 939 0
940 939 237 0
935 236 939 0
935 939 940 0
61 935 940 0
942 937 62 0
941 237 937 0
941 937 942 0
239 941 942 0
944 940 237 0
943 61 940 0
943 940 944 0
238 943 944 0
945 941 239 0
944 237 941 0
944 941 945 0
238 944 945 0
947 945 239 0
946 238 945 0
946 945 947 0
16 946 947 0
949 920 1550 0
948 231 920 0
948 920 949 0
241 948 949 0
951 917 231 0
950 59 917 0
950 917 951 0
240 950 951 0
952 948 241 0
951 231 948 0
951 948 952 0
240 951 952 0
954 952 241 0
953 240 952 0
953 952 954 0
63 953 954 0
956 908 59 0
955 228 908 0
955 908 956 0
242 955 956 0
957 905 228 0
923 15 905 0
923 905 957 0
234 923 957 0
958 955 242 0
957 228 955 0
957 955 958 0
234 957 958 0
959 958 242 0
928 234 958 0
928 958 959 0
62 928 959 0
961 953 63 0
960 240 953 0
960 953 961 0
243 960 961 0
962 950 240 0
956 59 950 0
956 950 962 0
242 956 962 0
963 960 243 0
962 240 960 0
962 960 963 0
242 962 963 0
964 963 243 0
959 242 963 0
959 963 964 0
62 959 964 0
966 961 63 0
965 243 961 0
965 961 966 0
244 965 966 0
967 964 243 0
942 62 964 0
942 964 967 0
239 942 967 0
968 965 244 0
967 243 965 0
967 965 968 0
239 967 968 0
969 968 244 0
947 239 968 0
947 968 969 0
16 947 969 0
1551 949 1550 0
1552 241 949 0
1552 949 1551 0
1553 954 241 0
970 63 954 0
970 954 1553 0
1554 970 1553 0
1553 241 1552 0
971 966 63 0
1555 244 966 0
1555 966 971 0
1556 1555 971 0
1557 969 244 0
1558 16 969 0
1558 969 1557 0
1557 244 1555 0
1559 970 1554 0
971 63 970 0
971 970 1559 0
1556 971 1559 0
227 1549 1560 0
227 1560 1561 0
902 227 1561 0
902 1561 1562 0
60 902 1562 0
60 1562 1563 0
916 60 1563 0
916 1563 1564 0
232 916 1564 0
232 1564 1565 0
921 232 1565 0
921 1565 1566 0
1550 921 1566 0
528 972 0 0
973 245 972 0
973 972 528 0
133 973 528 0
976 974 245 0
975 64 974 0
975 974 976 0
246 975 976 0
977 973 133 0
976 245 973 0
976 973 977 0
246 976 977 0
531 977 133 0
978 246 977 0
978 977 531 0
35 978 531 0
981 979 64 0
980 247 979 0
980 979 981 0
249 980 981 0
984 982 247 0
983 17 982 0
983 982 984 0
248 983 984 0
985 980 249 0
984 247 980 0
984 980 985 0
248 984 985 0
987 985 249 0
986 248 985 0
986 985 987 0
65 986 987 0
989 978 35 0
988 246 978 0
988 978 989 0
250 988 989 0
990 975 246 0
981 64 975 0
981 975 990 0
249 981 990 0
991 988 250 0
990 246 988 0
990 988 991 0
249 990 991 0
992 991 250 0
987 249 991 0
987 991 992 0
65 987 992 0
540 989 35 0
993 250 989 0
993 989 540 0
136 993 540 0
995 992 250 0
994 65 992 0
994 992 995 0
251 994 995 0
996 993 136 0
995 250 993 0
995 993 996 0
251 995 996 0
543 996 136 0
997 251 996 0
997 996 543 0
9 997 543 0
1000 998 17 0
999 252 998 0
999 998 1000 0
254 999 1000 0
1003 1001 252 0
1002 66 1001 0
1002 1001 1003 0
253 1002 1003 0
1004 999 254 0
1003 252 999 0
1003 999 1004 0
253 1003 1004 0
1006 1004 254 0
1005 253 1004 0
1005 1004 1006 0
68 1005 1006 0
1009 1007 66 0
1008 255 1007 0
1008 1007 1009 0
257 1008 1009 0
1012 1010 255 0
1011 5 1010 0
1011 1010 1012 0
256 1011 1012 0
1013 1008 257 0
1012 255 1008 0
1012 1008 1013 0
256 1012 1013 0
1015 1013 257 0
1014 256 1013 0
1014 1013 1015 0
67 1014 1015 0
1017 1005 68 0
1016 253 1005 0
1016 1005 1017 0
258 1016 1017 0
1018 1002 253 0
1009 66 1002 0
1009 1002 1018 0
257 1009 1018 0
1019 1016 258 0
1018 253 1016 0
1018 1016 1019 0
257 1018 1019 0
1020 1019 258 0
1015 257 1019 0
1015 1019 1020 0
67 1015 1020 0
1022 1017 68 0
1021 258 1017 0
1021 1017 1022 0
260 1021 1022 0
1024 1020 258 0
1023 67 1020 0
1023 1020 1024 0
259 1023 1024 0
1025 1021 260 0
1024 258 1021 0
1024 1021 1025 0
259 1024 1025 0
1027 1025 260 0
1026 259 1025 0
1026 1025 1027 0
18 1026 1027 0
1029 997 9 0
1028 251 997 0
1028 997 1029 0
262 1028 1029 0
1031 994 251 0
1030 65 994 0
1030 994 1031 0
261 1030 1031 0
1032 1028 262 0
1031 251 1028 0
1031 1028 1032 0
261 1031 1032 0
1034 1032 262 0
1033 261 1032 0
1033 1032 1034 0
69 1033 1034 0
1036 986 65 0
1035 248 986 0
1035 986 1036 0
263 1035 1036 0
1037 983 248 0
1000 17 983 0
1000 983 1037 0
254 1000 1037 0
1038 1035 263 0
1037 248 1035 0
1037 1035 1038 0
254 1037 1038 0
1039 1038 263 0
1006 254 1038 0
1006 1038 1039 0
68 1006 1039 0
1041 1033 69 0
1040 261 1033 0
1040 1033 1041 0
264 1040 1041 0
1042 1030 261 0
1036 65 1030 0
1036 1030 1042 0
263 1036 1042 0
1043 1040 264 0
1042 261 1040 0
1042 1040 1043 0
263 1042 1043 0
1044 1043 264 0
1039 263 1043 0
1039 1043 1044 0
68 1039 1044 0
1046 1041 69 0
1045 264 1041 0
1045 1041 1046 0
265 1045 1046 0
1047 1044 264 0
1022 68 1044 0
1022 1044 1047 0
260 1022 1047 0
1048 1045 265 0
1047 264 1045 0
1047 1045 1048 0
260 1047 1048 0
1049 1048 265 0
1027 260 1048 0
1027 1048 1049 0
18 1027 1049 0
576 1029 9 0
1050 262 1029 0
1050 1029 576 0
145 1050 576 0
1052 1034 262 0
1051 69 1034 0
1051 1034 1052 0
266 1051 1052 0
1053 1050 145 0
1052 262 1050 0
1052 1050 1053 0
266 1052 1053 0
579 1053 145 0
1054 266 1053 0
1054 1053 579 0
38 1054 579 0
1056 1046 69 0
1055 265 1046 0
1055 1046 1056 0
268 1055 1056 0
1058 1049 265 0
1057 18 1049 0
1057 1049 1058 0
267 1057 1058 0
1059 1055 268 0
1058 265 1055 0
1058 1055 1059 0
267 1058 1059 0
1061 1059 268 0
1060 267 1059 0
1060 1059 1061 0
70 1060 1061 0
1063 1054 38 0
1062 266 1054 0
1062 1054 1063 0
269 1062 1063 0
1064 1051 266 0
1056 69 1051 0
1056 1051 1064 0
268 1056 1064 0
1065 1062 269 0
1064 266 1062 0
1064 1062 1065 0
268 1064 1065 0
1066 1065 269 0
1061 268 1065 0
1061 1065 1066 0
70 1061 1066 0
588 1063 38 0
1067 269 1063 0
1067 1063 588 0
148 1067 588 0
1069 1066 269 0
1068 70 1066 0
1068 1066 1069 0
270 1068 1069 0
1070 1067 148 0
1069 269 1067 0
1069 1067 1070 0
270 1069 1070 0
591 1070 148 0
1071 270 1070 0
1071 1070 591 0
3 1071 591 0
1074 1072 5 0
1073 271 1072 0
1073 1072 1074 0
273 1073 1074 0
1077 1075 271 0
1076 1567 1075 0
1076 1075 1077 0
272 1076 1077 0
1078 1073 273 0
1077 271 1073 0
1077 1073 1078 0
272 1077 1078 0
1080 1078 273 0
1079 272 1078 0
1079 1078 1080 0
72 1079 1080 0
1082 1568 1567 0
1081 1569 1568 0
1081 1568 1082 0
275 1081 1082 0
274 1570 1571 0
1083 1081 275 0
1571 1569 1081 0
1571 1081 1083 0
274 1571 1083 0
1085 1083 275 0
1084 274 1083 0
1084 1083 1085 0
71 1084 1085 0
1087 1079 72 0
1086 272 1079 0
1086 1079 1087 0
276 1086 1087 0
1088 1076 272 0
1082 1567 1076 0
1082 1076 1088 0
275 1082 1088 0
1089 1086 276 0
1088 272 1086 0
1088 1086 1089 0
275 1088 1089 0
1090 1089 276 0
1085 275 1089 0
1085 1089 1090 0
71 1085 1090 0
1092 1087 72 0
1091 276 1087 0
1091 1087 1092 0
278 1091 1092 0
1094 1090 276 0
1093 71 1090 0
1093 1090 1094 0
277 1093 1094 0
1095 1091 278 0
1094 276 1091 0
1094 1091 1095 0
277 1094 1095 0
1097 1095 278 0
1096 277 1095 0
1096 1095 1097 0
20 1096 1097 0
19 1572 1573 0
1099 1096 20 0
1098 277 1096 0
1098 1096 1099 0
280 1098 1099 0
1101 1093 277 0
1100 71 1093 0
1100 1093 1101 0
279 1100 1101 0
1102 1098 280 0
1101 277 1098 0
1101 1098 1102 0
279 1101 1102 0
1104 1102 280 0
1103 279 1102 0
1103 1102 1104 0
73 1103 1104 0
1106 1084 71 0
1105 274 1084 0
1105 1084 1106 0
281 1105 1106 0
1574 1570 274 0
1575 1105 281 0
1574 274 1105 0
1574 1105 1575 0
1107 1575 281 0
1576 1575 1107 0
1577 1576 1107 0
1109 1103 73 0
1108 279 1103 0
1108 1103 1109 0
282 1108 1109 0
1110 1100 279 0
1106 71 1100 0
1106 1100 1110 0
281 1106 1110 0
1111 1108 282 0
1110 279 1108 0
1110 1108 1111 0
281 1110 1111 0
1112 1111 282 0
1107 281 1111 0
1107 1111 1112 0
1577 1107 1112 0
1114 1109 73 0
1113 282 1109 0
1113 1109 1114 0
283 1113 1114 0
1115 1112 282 0
1578 1577 1112 0
1578 1112 1115 0
1579 1578 1115 0
1116 1113 283 0
1115 282 1113 0
1115 1113 1116 0
1579 1115 1116 0
1117 1116 283 0
1573 1579 1116 0
1573 1116 1117 0
19 1573 1117 0
1119 1099 20 0
1118 280 1099 0
1118 1099 1119 0
285 1118 1119 0
1121 1104 280 0
1120 73 1104 0
1120 1104 1121 0
284 1120 1121 0
1122 1118 285 0
1121 280 1118 0
1121 1118 1122 0
284 1121 1122 0
1124 1122 285 0
1123 284 1122 0
1123 1122 1124 0
75 1123 1124 0
1126 1114 73 0
1125 283 1114 0
1125 1114 1126 0
287 1125 1126 0
1128 1117 283 0
1127 19 1117 0
1127 1117 1128 0
286 1127 1128 0
1129 1125 287 0
1128 283 1125 0
1128 1125 1129 0
286 1128 1129 0
1131 1129 287 0
1130 286 1129 0
1130 1129 1131 0
74 1130 1131 0
1133 1123 75 0
1132 284 1123 0
1132 1123 1133 0
288 1132 1133 0
1134 1120 284 0
1126 73 1120 0
1126 1120 1134 0
287 1126 1134 0
1135 1132 288 0
1134 284 1132 0
1134 1132 1135 0
287 1134 1135 0
1136 1135 288 0
1131 287 1135 0
1131 1135 1136 0
74 1131 1136 0
1138 1133 75 0
1137 288 1133 0
1137 1133 1138 0
290 1137 1138 0
1140 1136 288 0
1139 74 1136 0
1139 1136 1140 0
289 1139 1140 0
1141 1137 290 0
1140 288 1137 0
1140 1137 1141 0
289 1140 1141 0
1143 1141 290 0
1142 289 1141 0
1142 1141 1143 0
6 1142 1143 0
1145 1071 3 0
1144 270 1071 0
1144 1071 1145 0
292 1144 1145 0
1147 1068 270 0
1146 70 1068 0
1146 1068 1147 0
291 1146 1147 0
1148 1144 292 0
1147 270 1144 0
1147 1144 1148 0
291 1147 1148 0
1150 1148 292 0
1149 291 1148 0
1149 1148 1150 0
77 1149 1150 0
1152 1060 70 0
1151 267 1060 0
1151 1060 1152 0
294 1151 1152 0
1154 1057 267 0
1153 18 1057 0
1153 1057 1154 0
293 1153 1154 0
1155 1151 294 0
1154 267 1151 0
1154 1151 1155 0
293 1154 1155 0
1157 1155 294 0
1156 293 1155 0
1156 1155 1157 0
76 1156 1157 0
1159 1149 77 0
1158 291 1149 0
1158 1149 1159 0
295 1158 1159 0
1160 1146 291 0
1152 70 1146 0
1152 1146 1160 0
294 1152 1160 0
1161 1158 295 0
1160 291 1158 0
1160 1158 1161 0
294 1160 1161 0
1162 1161 295 0
1157 294 1161 0
1157 1161 1162 0
76 1157 1162 0
1164 1159 77 0
1163 295 1159 0
1163 1159 1164 0
297 1163 1164 0
1166 1162 295 0
1165 76 1162 0
1165 1162 1166 0
296 1165 1166 0
1167 1163 297 0
1166 295 1163 0
1166 1163 1167 0
296 1166 1167 0
1169 1167 297 0
1168 296 1167 0
1168 1167 1169 0
21 1168 1169 0
1171 1026 18 0
1170 259 1026 0
1170 1026 1171 0
299 1170 1171 0
1173 1023 259 0
1172 67 1023 0
1172 1023 1173 0
298 1172 1173 0
1174 1170 299 0
1173 259 1170 0
1173 1170 1174 0
298 1173 1174 0
1176 1174 299 0
1175 298 1174 0
1175 1174 1176 0
78 1175 1176 0
1178 1014 67 0
1177 256 1014 0
1177 1014 1178 0
300 1177 1178 0
1179 1011 256 0
1074 5 1011 0
1074 1011 1179 0
273 1074 1179 0
1180 1177 300 0
1179 256 1177 0
1179 1177 1180 0
273 1179 1180 0
1181 1180 300 0
1080 273 1180 0
1080 1180 1181 0
72 1080 1181 0
1183 1175 78 0
1182 298 1175 0
1182 1175 1183 0
301 1182 1183 0
1184 1172 298 0
1178 67 1172 0
1178 1172 1184 0
300 1178 1184 0
1185 1182 301 0
1184 298 1182 0
1184 1182 1185 0
300 1184 1185 0
1186 1185 301 0
1181 300 1185 0
1181 1185 1186 0
72 1181 1186 0
1188 1183 78 0
1187 301 1183 0
1187 1183 1188 0
302 1187 1188 0
1189 1186 301 0
1092 72 1186 0
1092 1186 1189 0
278 1092 1189 0
1190 1187 302 0
1189 301 1187 0
1189 1187 1190 0
278 1189 1190 0
1191 1190 302 0
1097 278 1190 0
1097 1190 1191 0
20 1097 1191 0
1193 1168 21 0
1192 296 1168 0
1192 1168 1193 0
304 1192 1193 0
1195 1165 296 0
1194 76 1165 0
1194 1165 1195 0
303 1194 1195 0
1196 1192 304 0
1195 296 1192 0
1195 1192 1196 0
303 1195 1196 0
1198 1196 304 0
1197 303 1196 0
1197 1196 1198 0
79 1197 1198 0
1200 1156 76 0
1199 293 1156 0
1199 1156 1200 0
305 1199 1200 0
1201 1153 293 0
1171 18 1153 0
1171 1153 1201 0
299 1171 1201 0
1202 1199 305 0
1201 293 1199 0
1201 1199 1202 0
299 1201 1202 0
1203 1202 305 0
1176 299 1202 0
1176 1202 1203 0
78 1176 1203 0
1205 1197 79 0
1204 303 1197 0
1204 1197 1205 0
306 1204 1205 0
1206 1194 303 0
1200 76 1194 0
1200 1194 1206 0
305 1200 1206 0
1207 1204 306 0
1206 303 1204 0
1206 1204 1207 0
305 1206 1207 0
1208 1207 306 0
1203 305 1207 0
1203 1207 1208 0
78 1203 1208 0
1210 1205 79 0
1209 306 1205 0
1209 1205 1210 0
307 1209 1210 0
1211 1208 306 0
1188 78 1208 0
1188 1208 1211 0
302 1188 1211 0
1212 1209 307 0
1211 306 1209 0
1211 1209 1212 0
302 1211 1212 0
1213 1212 307 0
1191 302 1212 0
1191 1212 1213 0
20 1191 1213 0
1215 1193 21 0
1214 304 1193 0
1214 1193 1215 0
309 1214 1215 0
1217 1198 304 0
1216 79 1198 0
1216 1198 1217 0
308 1216 1217 0
1218 1214 309 0
1217 304 1214 0
1217 1214 1218 0
308 1217 1218 0
1220 1218 309 0
1219 308 1218 0
1219 1218 1220 0
80 1219 1220 0
1222 1210 79 0
1221 307 1210 0
1221 1210 1222 0
310 1221 1222 0
1223 1213 307 0
1119 20 1213 0
1119 1213 1223 0
285 1119 1223 0
1224 1221 310 0
1223 307 1221 0
1223 1221 1224 0
285 1223 1224 0
1225 1224 310 0
1124 285 1224 0
1124 1224 1225 0
75 1124 1225 0
1227 1219 80 0
1226 308 1219 0
1226 1219 1227 0
311 1226 1227 0
1228 1216 308 0
1222 79 1216 0
1222 1216 1228 0
310 1222 1228 0
1229 1226 311 0
1228 308 1226 0
1228 1226 1229 0
310 1228 1229 0
1230 1229 311 0
1225 310 1229 0
1225 1229 1230 0
75 1225 1230 0
1232 1227 80 0
1231 311 1227 0
1231 1227 1232 0
312 1231 1232 0
1233 1230 311 0
1138 75 1230 0
1138 1230 1233 0
290 1138 1233 0
1234 1231 312 0
1233 311 1231 0
1233 1231 1234 0
290 1233 1234 0
1235 1234 312 0
1143 290 1234 0
1143 1234 1235 0
6 1143 1235 0
720 1145 3 0
1236 292 1145 0
1236 1145 720 0
181 1236 720 0
1238 1150 292 0
1237 77 1150 0
1237 1150 1238 0
313 1237 1238 0
1239 1236 181 0
1238 292 1236 0
1238 1236 1239 0
313 1238 1239 0
723 1239 181 0
1240 313 1239 0
1240 1239 723 0
47 1240 723 0
1242 1164 77 0
1241 297 1164 0
1241 1164 1242 0
315 1241 1242 0
1244 1169 297 0
1243 21 1169 0
1243 1169 1244 0
314 1243 1244 0
1245 1241 315 0
1244 297 1241 0
1244 1241 1245 0
314 1244 1245 0
1247 1245 315 0
1246 314 1245 0
1246 1245 1247 0
81 1246 1247 0
1249 1240 47 0
1248 313 1240 0
1248 1240 1249 0
316 1248 1249 0
1250 1237 313 0
1242 77 1237 0
1242 1237 1250 0
315 1242 1250 0
1251 1248 316 0
1250 313 1248 0
1250 1248 1251 0
315 1250 1251 0
1252 1251 316 0
1247 315 1251 0
1247 1251 1252 0
81 1247 1252 0
732 1249 47 0
1253 316 1249 0
1253 1249 732 0
184 1253 732 0
1255 1252 316 0
1254 81 1252 0
1254 1252 1255 0
317 1254 1255 0
1256 1253 184 0
1255 316 1253 0
1255 1253 1256 0
317 1255 1256 0
735 1256 184 0
1257 317 1256 0
1257 1256 735 0
12 1257 735 0
1259 1215 21 0
1258 309 1215 0
1258 1215 1259 0
319 1258 1259 0
1261 1220 309 0
1260 80 1220 0
1260 1220 1261 0
318 1260 1261 0
1262 1258 319 0
1261 309 1258 0
1261 1258 1262 0
318 1261 1262 0
1264 1262 319 0
1263 318 1262 0
1263 1262 1264 0
83 1263 1264 0
1266 1232 80 0
1265 312 1232 0
1265 1232 1266 0
321 1265 1266 0
1268 1235 312 0
1267 6 1235 0
1267 1235 1268 0
320 1267 1268 0
1269 1265 321 0
1268 312 1265 0
1268 1265 1269 0
320 1268 1269 0
1271 1269 321 0
1270 320 1269 0
1270 1269 1271 0
82 1270 1271 0
1273 1263 83 0
1272 318 1263 0
1272 1263 1273 0
322 1272 1273 0
1274 1260 318 0
1266 80 1260 0
1266 1260 1274 0
321 1266 1274 0
1275 1272 322 0
1274 318 1272 0
1274 1272 1275 0
321 1274 1275 0
1276 1275 322 0
1271 321 1275 0
1271 1275 1276 0
82 1271 1276 0
1278 1273 83 0
1277 322 1273 0
1277 1273 1278 0
324 1277 1278 0
1280 1276 322 0
1279 82 1276 0
1279 1276 1280 0
323 1279 1280 0
1281 1277 324 0
1280 322 1277 0
1280 1277 1281 0
323 1280 1281 0
1283 1281 324 0
1282 323 1281 0
1282 1281 1283 0
22 1282 1283 0
1285 1257 12 0
1284 317 1257 0
1284 1257 1285 0
326 1284 1285 0
1287 1254 317 0
1286 81 1254 0
1286 1254 1287 0
325 1286 1287 0
1288 1284 326 0
1287 317 1284 0
1287 1284 1288 0
325 1287 1288 0
1290 1288 326 0
1289 325 1288 0
1289 1288 1290 0
84 1289 1290 0
1292 1246 81 0
1291 314 1246 0
1291 1246 1292 0
327 1291 1292 0
1293 1243 314 0
1259 21 1243 0
1259 1243 1293 0
319 1259 1293 0
1294 1291 327 0
1293 314 1291 0
1293 1291 1294 0
319 1293 1294 0
1295 1294 327 0
1264 319 1294 0
1264 1294 1295 0
83 1264 1295 0
1297 1289 84 0
1296 325 1289 0
1296 1289 1297 0
328 1296 1297 0
1298 1286 325 0
1292 81 1286 0
1292 1286 1298 0
327 1292 1298 0
1299 1296 328 0
1298 325 1296 0
1298 1296 1299 0
327 1298 1299 0
1300 1299 328 0
1295 327 1299 0
1295 1299 1300 0
83 1295 1300 0
1302 1297 84 0
1301 328 1297 0
1301 1297 1302 0
329 1301 1302 0
1303 1300 328 0
1278 83 1300 0
1278 1300 1303 0
324 1278 1303 0
1304 1301 329 0
1303 328 1301 0
1303 1301 1304 0
324 1303 1304 0
1305 1304 329 0
1283 324 1304 0
1283 1304 1305 0
22 1283 1305 0
768 1285 12 0
1306 326 1285 0
1306 1285 768 0
193 1306 768 0
1308 1290 326 0
1307 84 1290 0
1307 1290 1308 0
330 1307 1308 0
1309 1306 193 0
1308 326 1306 0
1308 1306 1309 0
330 1308 1309 0
771 1309 193 0
1310 330 1309 0
1310 1309 771 0
50 1310 771 0
1312 1302 84 0
1311 329 1302 0
1311 1302 1312 0
332 1311 1312 0
1314 1305 329 0
1313 22 1305 0
1313 1305 1314 0
331 1313 1314 0
1315 1311 332 0
1314 329 1311 0
1314 1311 1315 0
331 1314 1315 0
1317 1315 332 0
1316 331 1315 0
1316 1315 1317 0
85 1316 1317 0
1319 1310 50 0
1318 330 1310 0
1318 1310 1319 0
333 1318 1319 0
1320 1307 330 0
1312 84 1307 0
1312 1307 1320 0
332 1312 1320 0
