#!ascii - generated by CreateLabelFiles project 
3012 5778
-12.3546 -19.3686 1.61964 0
-11.3244 -21.8063 2.97523 0
-10.9851 -21.3524 2.47982 0
-12.1184 -22.8627 3.84385 0
-11.6951 -22.3273 3.39057 0
-12.1157 -21.9438 3.25614 0
-12.779 -22.1308 3.51882 0
-12.6482 -21.4618 3.23358 0
-12.5157 -20.3627 2.47056 0
-13.4403 -19.71 2.53788 0
-11.603 -20.9948 2.36769 0
-12.4688 -20.9631 2.81931 0
-13.2772 -20.9749 3.19523 0
-14.3211 -19.9551 2.69064 0
-14.4772 -19.3973 2.1576 0
-14.1778 -20.915 3.36766 0
-14.2152 -20.6286 2.99742 0
-10.7405 -18.1625 16.5165 0
-10.5416 -17.5421 16.4311 0
-10.8519 -19.2914 16.9897 0
-10.6814 -18.7799 16.9497 0
-10.4031 -19.4691 15.4808 0
-9.99189 -20.7009 14.1596 0
-10.2532 -20.2614 13.5059 0
-11.0377 -20.055 17.0907 0
-10.9365 -19.7065 17.0251 0
-11.4219 -20.6304 16.7973 0
-11.2206 -20.3519 16.9459 0
-10.4939 -20.9321 16.4694 0
-9.95784 -21.797 15.9055 0
-9.97809 -21.5471 15.5048 0
-9.91776 -21.0729 14.7043 0
-10.3899 -21.7696 13.1351 0
-10.4481 -20.3794 16.068 0
-9.96192 -21.3235 15.116 0
-10.0902 -22.1374 14.5015 0
-11.0444 -22.8955 12.2449 0
-11.5013 -22.683 11.4809 0
-10.431 -23.0093 13.8485 0
-10.6947 -22.9639 13.0529 0
-11.7609 -24.1656 11.5462 0
-12.0972 -25.4026 10.874 0
-12.342 -25.3856 10.1621 0
-11.7158 -21.256 17.1633 0
-11.5878 -20.9252 16.8481 0
-12.0004 -22.0118 17.9136 0
-11.8599 -21.6072 17.514 0
-10.9241 -22.0921 17.2279 0
-10.1311 -22.942 17.3532 0
-10.0252 -22.6243 16.9325 0
-12.0725 -22.9234 18.7 0
-12.1081 -22.4513 18.3224 0
-12.5208 -23.7093 19.9437 0
-12.2084 -23.35 19.2435 0
-11.3985 -23.4506 19.186 0
-10.7669 -23.7099 19.9208 0
-10.7401 -23.7833 18.9896 0
-10.324 -23.279 17.798 0
-10.0636 -23.6839 17.3418 0
-11.2512 -22.8371 18.0794 0
-10.6353 -23.627 18.301 0
-10.4066 -24.2875 18.4701 0
-10.1797 -24.3143 17.3754 0
-10.0028 -24.1792 16.7976 0
-10.1902 -24.8105 18.7107 0
-10.2557 -24.5809 17.9723 0
-10.5979 -25.079 17.254 0
-11.3172 -25.8479 16.3698 0
-12.0026 -25.3058 11.7039 0
-12.5957 -26.2811 10.4787 0
-10.3507 -23.0712 14.6254 0
-11.1839 -24.0481 13.2041 0
-11.8146 -25.1741 12.5931 0
-11.6733 -25.139 13.547 0
-12.3804 -26.3151 12.0805 0
-9.97757 -22.0631 16.1675 0
-10.0854 -22.4961 15.6031 0
-10.7387 -21.4793 16.5206 0
-9.95926 -22.3324 16.541 0
-9.91501 -23.1179 16.419 0
-10.9125 -24.0453 14.9805 0
-11.6209 -25.161 14.4725 0
-10.3336 -23.1871 15.3341 0
-10.1289 -23.5533 15.8216 0
-9.88134 -23.9672 16.2994 0
-11.492 -25.3869 15.1769 0
-12.085 -26.3828 13.9133 0
-10.428 -24.7669 16.0923 0
-11.3615 -25.665 15.7798 0
-13.0378 -26.815 10.2857 0
-13.0359 -26.8039 9.50847 0
-12.9389 -26.8909 11.872 0
-13.1398 -26.804 11.0804 0
-13.5366 -27.2008 10.2324 0
-14.2618 -21.5844 3.69928 0
-13.0393 -22.7023 3.91529 0
-13.4765 -22.2677 3.80244 0
-12.386 -23.4735 4.45231 0
-12.7111 -23.0744 4.10149 0
-13.1867 -23.3877 4.3062 0
-13.583 -23.9818 4.82075 0
-13.8959 -23.5616 4.53821 0
-14.3125 -22.1512 4.29627 0
-14.4819 -22.8216 4.60816 0
-14.8654 -23.4514 4.89425 0
-15.264 -24.0572 5.31287 0
-11.7663 -23.1325 6.20901 0
-11.895 -23.5423 5.35677 0
-11.7367 -21.0035 8.81291 0
-11.8158 -22.1154 7.47662 0
-12.451 -23.4986 6.57203 0
-12.3785 -24.2233 7.06887 0
-12.8147 -24.4365 6.19212 0
-10.8327 -19.1431 12.2793 0
-11.5789 -19.8867 10.1906 0
-10.5098 -18.279 14.5387 0
-10.5778 -19.7249 12.838 0
-11.1251 -20.9784 11.418 0
-12.1213 -23.221 8.51921 0
-12.3429 -24.8059 7.70423 0
-11.892 -21.4981 9.28918 0
-11.789 -22.0451 9.88346 0
-11.553 -22.4855 10.6114 0
-12.4882 -25.1873 8.53422 0
-12.8855 -25.8852 7.31428 0
-12.2104 -23.9787 10.0151 0
-12.49 -25.3653 9.36494 0
-12.8524 -26.3474 8.89248 0
-14.674 -24.7772 5.38655 0
-15.3128 -24.7401 5.83507 0
-15.275 -25.2613 6.47035 0
-14.6592 -26.18 6.43674 0
-13.3161 -24.3327 5.19452 0
-14.1029 -24.4843 5.22262 0
-12.4838 -24.177 5.16736 0
-12.8622 -24.6396 5.6051 0
-13.1953 -25.1752 6.03099 0
-14.2062 -25.9632 6.24365 0
-14.2528 -26.6395 6.75879 0
-14.1625 -25.1615 5.76699 0
-13.7468 -25.6005 6.12992 0
-13.3151 -26.1053 6.46021 0
-13.8584 -26.8861 7.19816 0
-14.2634 -26.9919 7.39295 0
-13.399 -26.6765 7.06807 0
-13.4291 -26.9757 7.77806 0
-13.2525 -26.9449 8.64168 0
-14.1747 -27.1536 8.09355 0
-13.593 -27.135 8.6988 0
-14.0314 -27.1596 8.9139 0
-12.0126 -12.2958 -0.232891 0
-12.8769 -11.897 -0.469831 0
-10.2057 -12.9808 0.0368668 0
-11.1348 -12.6778 -0.0412391 0
-8.57755 -13.4226 0.494423 0
-9.34417 -13.2882 0.150149 0
-10.3686 -13.7063 -0.223194 0
-10.6103 -14.409 -0.19411 0
-11.4562 -14.1175 -0.645105 0
-13.3929 -13.3157 -0.926905 0
-12.2268 -13.0288 -0.464861 0
-12.41 -13.7292 -0.797211 0
-12.7134 -14.4241 -0.881418 0
-13.1073 -15.0453 -0.584226 0
-6.69702 -13.3542 2.32976 0
-7.71597 -13.5243 1.19044 0
-5.35477 -11.9498 5.87545 0
-5.95733 -12.7823 4.04499 0
-6.96667 -14.0706 2.45965 0
-7.22484 -14.7491 2.60075 0
-8.29624 -14.9002 1.62993 0
-5.09681 -10.0555 8.45145 0
-5.07334 -11.0075 7.381 0
-5.27356 -9.4264 9.51057 0
-5.37862 -10.3399 8.67741 0
-5.54217 -11.582 7.65336 0
-6.33486 -13.8995 4.21387 0
-7.43464 -15.3522 2.86578 0
-5.55702 -12.2813 5.89796 0
-5.70839 -12.7277 6.04027 0
-5.96625 -13.1904 6.20515 0
-7.62314 -15.9947 2.99658 0
-8.71755 -16.2856 1.79969 0
-6.73566 -15.0048 4.50939 0
-7.8726 -16.6434 3.10348 0
-9.19177 -17.6557 1.73728 0
-12.1994 -15.3943 -0.0629068 0
-13.4998 -15.7305 -0.364423 0
-13.8173 -16.278 -0.0943057 0
-12.8497 -16.5583 0.453081 0
-14.0561 -16.9626 0.0992224 0
-9.82597 -14.6882 0.2385 0
-10.9344 -15.073 0.0445068 0
-8.86374 -14.1252 0.685452 0
-9.14415 -14.8347 0.827297 0
-9.38825 -15.4737 1.04424 0
-11.462 -16.3107 0.485699 0
-11.7328 -16.9782 0.662463 0
-11.1925 -15.6966 0.26788 0
-10.2527 -15.9911 0.587793 0
-9.55187 -16.1264 1.20094 0
-10.6473 -17.3945 0.823357 0
-11.9404 -17.6178 0.834812 0
-9.71856 -16.8635 1.15358 0
-9.9279 -17.5968 1.2572 0
-10.2642 -18.1971 1.33904 0
-14.1823 -17.4626 0.362034 0
-12.1112 -18.2097 1.02818 0
-13.1883 -17.6248 0.94654 0
-11.0535 -18.7895 1.03658 0
-12.2476 -18.8275 1.25295 0
-13.343 -18.7496 1.62016 0
-14.3101 -17.8684 0.702098 0
-14.3533 -18.4295 1.06447 0
-14.4531 -18.8899 1.70325 0
-15.5749 -19.0666 1.73533 0
-13.5334 -24.5739 21.3836 0
-13.011 -24.1412 20.6571 0
-14.3824 -25.9045 22.6791 0
-13.917 -25.1328 22.1162 0
-13.0162 -24.915 21.9226 0
-12.5344 -25.2716 22.3677 0
-12.13 -24.9017 21.714 0
-12.7364 -25.7572 23.1694 0
-11.2068 -24.1764 20.5261 0
-10.6797 -24.5592 20.0584 0
-12.0844 -24.1609 20.56 0
-11.6795 -24.6232 21.1371 0
-11.2398 -25.2933 21.2848 0
-10.7505 -25.5325 20.0214 0
-8.63434 -0.969602 -1.62926 0
-7.94455 -0.670678 -2.04685 0
-8.13044 -1.06831 -2.47364 0
-7.47804 -1.20222 -3.18442 0
-6.58067 -1.6155 -3.29347 0
-6.62498 -1.95069 -3.50189 0
-8.63035 -0.147492 -1.10929 0
-7.85266 -0.398407 -0.96063 0
-7.86489 -0.482982 -1.56243 0
-8.72948 0.285058 0.0167033 0
-8.02203 -0.0464001 0.309634 0
-7.86021 -0.314395 -0.284122 0
-7.01226 -0.819961 -0.630425 0
-6.35487 -1.33079 -0.631058 0
-6.22483 -1.38717 -1.26449 0
-6.49408 -1.43086 -2.76915 0
-5.62312 -2.10502 -3.24422 0
-7.17255 -0.823608 -2.15067 0
-6.30999 -1.38074 -2.05658 0
-5.44583 -1.98088 -1.97471 0
-4.6754 -2.4488 -3.25802 0
-4.80708 -2.62096 -3.79522 0
-4.67905 -2.54883 -2.04701 0
-4.76773 -2.52048 -2.73462 0
-3.98119 -2.97986 -3.27331 0
-3.39848 -3.44723 -3.46126 0
-3.4464 -3.37702 -3.99141 0
-9.12823 1.27 0.804709 0
-8.77609 0.643084 1.11528 0
-8.33036 0.398725 0.703173 0
-9.0181 2.09592 1.65359 0
-8.8217 1.54905 1.91412 0
-8.67552 1.22672 1.49322 0
-8.47715 0.135437 1.47918 0
-8.27923 -0.325285 1.67326 0
-7.98686 -0.684953 1.25092 0
-9.34286 2.36926 2.68793 0
-9.00805 1.96603 2.8384 0
-8.99669 1.82724 2.42342 0
-9.33323 2.32149 3.45067 0
-8.97788 2.01823 3.21648 0
-8.73353 1.33752 3.00347 0
-8.48351 0.64321 2.79843 0
-8.46973 0.0122007 1.96602 0
-7.82173 -0.665048 1.78025 0
-8.73686 0.875307 2.19454 0
-8.47441 0.338184 2.39328 0
-8.16654 -0.164998 2.58029 0
-7.58158 -1.15207 1.99942 0
-7.09977 -1.34315 1.57594 0
-7.83814 -0.949779 2.3825 0
-7.40274 -1.67593 2.19451 0
-6.74144 -2.47024 1.9436 0
-3.62139 -3.89955 -2.94451 0
-3.08239 -4.46252 -3.65768 0
-4.70129 -2.52778 -1.36289 0
-4.11321 -3.24732 -2.17103 0
-3.72277 -4.18993 -2.382 0
-4.01244 -4.28529 -1.82899 0
-3.69463 -5.17279 -2.6119 0
-6.63886 -1.04668 -0.0157212 0
-5.7305 -1.81864 -0.69931 0
-7.41168 -0.24088 0.576632 0
-7.1267 -0.750704 0.631638 0
-6.93389 -1.25111 0.674026 0
-4.557 -3.21149 -0.941233 0
-4.45298 -4.23224 -1.18833 0
-5.03068 -2.39777 -0.808829 0
-5.84109 -2.19372 -0.101891 0
-6.62014 -1.74402 0.769292 0
-5.23018 -4.01107 -0.128739 0
-4.26548 -5.28903 -1.1728 0
-6.50236 -2.49366 0.904537 0
-6.25331 -3.16489 1.09942 0
-6.04485 -3.76017 1.30798 0
-2.93861 -5.6415 -3.83024 0
-2.87313 -5.19934 -4.45298 0
-3.65994 -6.03468 -2.68715 0
-3.34413 -5.88454 -3.27423 0
-3.003 -6.52146 -4.03033 0
-3.11975 -7.25529 -4.0944 0
-2.82695 -7.00763 -4.80075 0
-4.18779 -6.14901 -1.02039 0
-3.82037 -6.1744 -1.91966 0
-5.19632 -5.45587 0.235379 0
-4.37008 -6.72016 -0.82959 0
-4.34352 -7.47662 -1.84183 0
-3.62301 -7.31008 -3.3792 0
-3.49868 -7.8066 -4.10188 0
-3.71372 -6.77548 -2.64763 0
-3.92673 -7.412 -2.61295 0
-4.33786 -8.0092 -2.60883 0
-3.93597 -8.37625 -4.14032 0
-3.49854 -8.24853 -4.90497 0
-4.34922 -8.51419 -3.38431 0
-4.35786 -9.01262 -4.16645 0
-4.64132 -9.18509 -4.84243 0
-3.20733 -7.63845 -6.8334 0
-4.06845 -3.22996 -5.93886 0
-7.49448 -1.84531 -3.31707 0
-6.57901 -2.04481 -3.79241 0
-5.72744 -2.33459 -4.18919 0
-4.59936 -3.08777 -5.4104 0
-4.07094 -3.35718 -5.73212 0
-5.09669 -2.65374 -5.10646 0
-5.15511 -2.80061 -4.50144 0
-3.86183 -3.42453 -5.26559 0
-3.43154 -3.67994 -5.92845 0
-4.34523 -3.11452 -4.57053 0
-3.59827 -3.38462 -4.61198 0
-3.1332 -3.9473 -4.82042 0
-3.33079 -6.96326 -7.25444 0
-3.64699 -7.58659 -7.35885 0
-2.63366 -5.63982 -7.02992 0
-2.97254 -6.30578 -7.1876 0
-3.29636 -6.37101 -7.28395 0
-3.17458 -5.85229 -7.10388 0
-3.58743 -6.40966 -7.25466 0
-2.8901 -5.22536 -6.92146 0
-3.07791 -5.34686 -6.88714 0
-2.74856 -5.06846 -7.00527 0
-2.82604 -4.56382 -6.73261 0
-3.11893 -4.1065 -6.44858 0
-3.12863 -4.84972 -6.5578 0
-3.27872 -5.47107 -6.7842 0
-3.09098 -4.25687 -6.22078 0
-2.99287 -4.49508 -5.72846 0
-2.90717 -4.77839 -5.09158 0
-3.98516 -7.54728 -7.43779 0
-3.9434 -8.2258 -7.3996 0
-3.90463 -6.41442 -7.23191 0
-3.9632 -6.95433 -7.34566 0
-4.38253 -7.45288 -7.49604 0
-4.73061 -7.40499 -7.50338 0
-4.75806 -8.01871 -7.54032 0
-3.08717 -5.9609 -6.17761 0
-3.61251 -6.07507 -6.8698 0
-2.88289 -5.6485 -5.329 0
-2.87166 -6.4874 -5.45179 0
-3.24693 -7.0795 -5.59468 0
-4.25504 -7.27111 -7.00288 0
-4.66767 -7.79037 -7.08308 0
-3.95369 -6.68763 -6.94411 0
-3.77762 -7.14282 -6.38131 0
-3.60064 -7.68726 -5.66516 0
-4.58195 -8.20509 -6.49976 0
-5.00302 -8.42842 -7.09145 0
-3.96994 -8.28669 -5.68423 0
-4.45627 -8.80019 -5.6544 0
-5.01496 -9.28611 -5.57165 0
-4.23673 -8.87578 -7.34487 0
-4.98622 -8.7471 -7.52999 0
-4.6501 -8.75354 -7.42349 0
-5.51405 -8.82545 -7.14015 0
-5.18701 -8.86127 -7.44479 0
-5.73578 -8.99977 -6.51835 0
-6.29327 -8.9454 -7.29416 0
-6.52895 -9.29746 -7.53366 0
-5.24879 -9.38741 -7.53761 0
-5.944 -9.56388 -7.59879 0
-22.4985 4.70632 -5.83621 0
-21.1325 2.08838 -5.68594 0
-21.0067 0.844473 -6.17469 0
-20.7525 0.862881 -5.74142 0
-12.5128 1.05091 -1.59408 0
-16.0369 3.39772 -1.70112 0
-14.9141 2.61498 -1.45036 0
-17.0367 4.21344 -1.97593 0
-16.9443 3.81647 -1.4926 0
-18.1694 4.69956 -2.72012 0
-19.2356 5.1993 -3.73168 0
-19.1302 4.79021 -3.08046 0
-20.1175 5.295 -5.13107 0
-20.6036 4.6793 -5.81162 0
-17.9764 4.02248 -1.49119 0
-16.96 3.44826 -0.94386 0
-19.7501 4.42102 -3.75486 0
-19.0954 4.40142 -2.47044 0
-18.9355 4.05052 -1.87455 0
-19.6944 3.81426 -2.455 0
-18.836 3.7773 -1.31538 0
-21.0595 4.12597 -6.4458 0
-20.3451 4.32527 -5.07509 0
-22.0238 4.44544 -6.40245 0
-21.4443 3.65 -6.45121 0
-20.9842 3.1129 -6.16386 0
-20.4866 3.61423 -3.65644 0
-20.5168 3.07381 -3.20412 0
-20.3367 3.97435 -4.34592 0
-20.7943 3.34427 -4.94538 0
-20.9117 2.68411 -5.47112 0
-21.0279 2.33969 -3.9453 0
-20.568 2.45807 -2.85367 0
-20.9851 2.1784 -5.00497 0
-20.9124 1.57104 -4.96145 0
-20.9256 0.981787 -4.57857 0
-9.6738 -2.0493 -1.5197 0
-11.0348 -0.802631 -0.748132 0
-10.3945 -1.54834 -0.990906 0
-9.45917 -1.43929 -1.0866 0
-9.32226 -0.609167 -0.948566 0
-12.3084 1.68771 -1.11278 0
-11.5683 0.341216 -0.768528 0
-14.7242 2.88914 -0.944109 0
-13.5053 2.575 -1.18038 0
-12.2399 2.35876 -0.778488 0
-12.2543 3.00345 -0.371525 0
-11.184 2.17889 -0.463208 0
-10.107 -0.207742 -0.197054 0
-9.33704 -0.0855404 -0.638173 0
-10.7296 -0.00793752 -0.379821 0
-10.6289 0.891136 -0.225999 0
-10.5227 1.79409 -0.208422 0
-9.36199 0.390689 -0.416905 0
-10.5969 2.39484 0.0340086 0
-9.94367 1.29099 0.044308 0
-9.32103 0.919173 -0.0950706 0
-9.36076 1.41444 0.326561 0
-16.8043 3.43414 -0.418442 0
-15.7388 3.17645 -0.672472 0
-18.8881 3.20847 -0.926608 0
-18.0441 3.59796 -0.218684 0
-16.6823 3.41479 0.102026 0
-16.5586 3.35744 0.569582 0
-15.3469 3.42204 0.360118 0
-20.4983 1.82964 -2.57133 0
-19.7648 2.57634 -1.73948 0
-21.0598 1.15759 -3.27717 0
-20.5353 1.41747 -2.00258 0
-19.8896 1.7421 -0.66593 0
-17.9676 3.20003 0.6991 0
-16.4527 3.18776 1.08088 0
-18.8967 2.89034 -0.459613 0
-18.9887 2.49275 0.0742435 0
-18.7203 2.03365 0.37305 0
-16.2608 2.86103 1.42185 0
-15.1159 3.28909 1.382 0
-17.5076 2.3605 1.25364 0
-16.2444 2.77904 1.98684 0
-15.0101 3.19468 2.3983 0
-10.0492 2.59573 0.46103 0
-9.48179 2.04271 0.60479 0
-11.4246 3.25093 0.210713 0
-10.7307 2.92961 0.338595 0
-10.8258 3.17025 0.801254 0
-11.5727 3.51421 1.17021 0
-10.8565 3.3848 1.28247 0
-13.3525 3.5715 -0.139766 0
-12.3276 3.47478 0.0647475 0
-14.5586 3.24918 -0.414958 0
-14.4003 3.53958 0.0941103 0
-14.2876 3.65102 0.654198 0
-12.3938 3.625 1.07497 0
-12.3034 3.67551 1.51728 0
-12.4039 3.54628 0.586977 0
-13.2835 3.77233 0.968273 0
-14.1671 3.60674 1.18191 0
-13.025 3.83121 1.8575 0
-12.2074 3.64083 1.99586 0
-14.0113 3.7129 1.67475 0
-13.9128 3.7475 2.15376 0
-13.7718 3.32588 2.5537 0
-9.50428 2.46894 1.09344 0
-10.8522 3.35064 1.8183 0
-10.1036 3.22383 1.4201 0
-9.45741 2.77878 1.54005 0
-9.46749 2.6188 1.96947 0
-12.0284 3.36091 2.40557 0
-11.4449 3.4398 2.1655 0
-12.7309 3.18901 2.65334 0
-11.8824 3.21973 2.83238 0
-11.1387 3.08734 2.94447 0
-10.0066 2.92011 2.29453 0
-9.58416 2.67034 2.47146 0
-10.7391 3.20149 2.24626 0
-10.6136 3.02294 2.63456 0
-10.5818 2.97662 3.11823 0
-9.6824 2.65991 2.97978 0
-10.05 2.86031 3.2789 0
-9.66998 2.62696 3.38403 0
-20.8346 -0.307527 -6.37229 0
-20.925 0.301321 -6.5994 0
-20.9534 -0.945087 -6.07969 0
-24.7259 -8.03017 -2.91984 0
-24.4624 -7.57472 -3.25383 0
-24.9819 -8.58179 -2.70722 0
-25.1769 -9.27728 -2.68831 0
-24.4441 -9.44684 -2.78062 0
-21.2629 -1.59223 -5.89016 0
-21.6535 -2.25535 -5.85106 0
-22.8038 -3.47482 -5.69869 0
-22.6349 -2.80908 -5.7647 0
-23.1723 -4.0638 -5.59287 0
-23.7316 -4.25379 -4.61233 0
-23.7415 -4.72478 -4.83947 0
-23.7812 -5.15632 -4.91765 0
-23.9359 -5.49341 -4.51932 0
-24.0287 -4.88854 -2.92345 0
-24.1859 -5.26747 -2.87238 0
-24.2101 -6.27203 -3.97834 0
-24.3157 -6.67858 -3.72546 0
-24.3817 -7.1178 -3.50633 0
-24.4411 -9.5305 -2.28701 0
-24.2429 -9.44517 -1.64932 0
-23.9144 -9.19029 -0.894595 0
-23.7211 -9.23389 -0.215843 0
-23.7429 -9.53686 0.365703 0
-22.6143 -9.20842 1.08284 0
-22.7419 -9.86432 1.40444 0
-22.8574 -10.4824 1.70802 0
-23.7768 -11.3662 0.906938 0
-23.657 -12.0893 0.880485 0
-22.6291 -11.6641 2.02189 0
-22.2554 -12.1028 2.32544 0
-23.05 -13.0149 1.60816 0
-22.7493 -13.1931 2.37982 0
-22.291 -13.4968 2.88448 0
-21.7525 -13.8217 3.22336 0
-21.2734 -13.9674 3.57387 0
-20.8688 -14.065 3.91678 0
-20.5857 -18.0103 9.79982 0
-21.8862 -15.6415 8.45644 0
-20.9321 -17.2607 9.58384 0
-21.412 -16.6917 9.30248 0
-21.6877 -16.0993 8.89045 0
-20.0443 -14.2004 5.77805 0
-21.9691 -14.0472 6.4604 0
-20.475 -14.1423 4.16197 0
-20.0548 -14.2121 4.80613 0
-20.2101 -14.066 4.44451 0
-21.9414 -15.1645 8.03647 0
-22.0163 -14.7224 7.65243 0
-22.0128 -14.3827 7.0598 0
-21.9522 -19.8249 11.1872 0
-21.7411 -19.4727 10.6992 0
-21.6562 -19.072 10.1619 0
-21.9901 -18.3704 9.65563 0
-23.4202 -20.1217 11.5666 0
-23.522 -20.6052 11.9214 0
-23.6089 -21.1113 12.3076 0
-23.5438 -21.3641 12.8474 0
-23.5282 -21.575 13.3982 0
-23.5712 -21.9319 13.95 0
-24.8873 -22.7398 14.6735 0
-24.6418 -21.9188 14.3993 0
-24.9947 -23.1289 15.1152 0
-24.9104 -23.3572 15.7719 0
-24.7313 -23.3706 16.6194 0
-24.5188 -23.4425 17.5766 0
-24.3066 -23.6786 18.414 0
-24.1724 -24.0538 19.0654 0
-24.2627 -24.3003 19.8088 0
-23.7711 -23.7555 20.9841 0
-24.1472 -24.6728 20.5352 0
-23.7718 -23.9226 21.6626 0
-23.7804 -23.9228 22.3709 0
-20.6605 -17.2267 31.3802 0
-20.8543 -17.8309 30.356 0
-22.1492 -19.6122 29.843 0
-22.2934 -19.8256 29.1129 0
-22.5632 -20.1269 28.3365 0
-23.8775 -23.4208 23.8355 0
-24.0633 -25.201 23.2944 0
-24.0616 -25.324 22.5004 0
-23.3881 -21.7752 27.9821 0
-23.6768 -22.1515 27.1442 0
-23.9437 -22.3828 26.3505 0
-24.4198 -24.1544 25.8261 0
-24.4895 -24.4037 24.9216 0
-24.0383 -22.995 24.6387 0
-16.8914 -16.8331 30.6056 0
-19.0228 -16.3265 31.2747 0
-20.5716 -17.1819 31.6046 0
-18.6956 -16.9174 31.2714 0
-16.1264 -26.9698 23.1335 0
-17.339 -27.1046 23.1943 0
-18.7942 -27.1786 24.1257 0
-17.9831 -27.4685 23.8664 0
-15.7591 -22.2787 23.954 0
-15.2881 -23.0425 23.9418 0
-14.1193 -22.7987 23.6518 0
-19.511 -26.8224 24.4487 0
-19.3754 -25.8618 24.8536 0
-18.9348 -24.7062 24.8368 0
-18.4807 -23.3471 24.8721 0
-17.7167 -23.9431 24.923 0
-16.5364 -23.3506 24.5553 0
-16.7177 -17.5717 30.6446 0
-16.4643 -18.2672 30.6855 0
-13.9586 -17.6124 28.4591 0
-15.1808 -18.3358 29.3276 0
-13.1157 -22.7498 23.4675 0
-11.8925 -21.1788 24.0566 0
-12.15 -22.3329 23.9798 0
-12.0094 -18.5193 25.4641 0
-12.5052 -18.2286 26.6917 0
-11.7076 -19.9439 24.2976 0
-13.45 -10.2225 -0.369846 0
-13.6244 -10.8627 -0.496214 0
-12.4503 -9.64502 -1.20374 0
-12.9041 -9.72322 -0.988128 0
-12.6698 -9.71249 -0.427711 0
-13.0622 -9.96199 -0.408238 0
-10.1409 -10.6254 -3.93202 0
-10.1257 -10.6478 -4.92568 0
-9.51704 -10.6709 -5.16694 0
-9.23805 -10.1808 -5.94934 0
-7.59806 -9.89697 -7.16339 0
-8.23265 -9.86627 -6.94984 0
-8.43859 -10.1767 -6.07951 0
-7.27439 -9.98488 -7.55957 0
-10.6506 -10.6635 -3.55154 0
-11.1329 -10.5785 -3.10323 0
-11.7611 -9.81752 -2.76959 0
-12.4621 -9.59913 -2.26787 0
-15.3628 -19.6581 2.30516 0
-15.0905 -20.4643 3.18662 0
-15.1783 -20.2279 2.79165 0
-11.2584 -26.0352 17.0033 0
-11.8974 -26.8721 15.9667 0
-11.966 -26.5459 14.6889 0
-11.9321 -26.7288 15.3198 0
-13.5735 -27.2352 11.0033 0
-14.1112 -27.2406 9.62206 0
-14.2008 -27.3088 10.3814 0
-12.4985 -26.926 12.6668 0
-12.4406 -27.1105 13.5669 0
-13.0794 -27.2711 11.7061 0
-15.0664 -20.8651 3.60816 0
-15.9989 -20.8715 3.96183 0
-15.9949 -21.4134 4.58651 0
-15.183 -22.0169 4.74006 0
-15.3959 -22.7351 4.93824 0
-15.7174 -23.3651 5.30741 0
-15.9984 -23.9874 5.77587 0
-15.9865 -24.4995 6.40007 0
-15.958 -24.9669 7.04447 0
-15.2877 -25.9391 6.9631 0
-15.1973 -26.4081 7.54222 0
-14.6391 -27.006 7.62879 0
-14.56 -27.1543 8.34647 0
-14.6698 -27.2388 9.04842 0
-13.7624 -11.5594 -0.645196 0
-14.0315 -12.265 -0.784047 0
-14.3683 -12.9866 -0.97254 0
-14.7422 -13.684 -1.14448 0
-15.0748 -14.3983 -1.37135 0
-14.0534 -14.6848 -1.14932 0
-15.4355 -15.1275 -1.3542 0
-15.8098 -15.8061 -1.18969 0
-14.7986 -16.0224 -0.739496 0
-15.0073 -16.7266 -0.552352 0
-15.1914 -17.3864 -0.344527 0
-15.3141 -17.7536 0.0179466 0
-15.4083 -18.1662 0.386221 0
-16.4789 -18.7082 0.195159 0
-16.5339 -19.1556 0.872256 0
-16.3702 -19.6985 1.51477 0
-14.8769 -26.7903 23.1363 0
-12.0604 -25.8377 22.5566 0
-12.2505 -26.3049 23.3289 0
-13.7321 -26.2383 23.2295 0
-13.0975 -26.4929 23.7274 0
-11.3281 -26.2214 21.8737 0
-10.9863 -26.1439 17.7726 0
-10.3368 -25.537 18.7267 0
-10.3977 -25.0788 19.4257 0
-10.5883 -25.9574 19.3838 0
-10.486 -26.2737 20.0312 0
-10.6546 -25.8056 20.702 0
-10.8138 -26.0578 21.3142 0
-8.18982 -1.67374 -2.50464 0
-8.96006 -2.29183 -1.98485 0
-8.31142 -2.10955 -2.6732 0
-2.89397 -6.97718 -6.9671 0
-2.76699 -7.67856 -6.46656 0
-3.05192 -8.3745 -6.33335 0
-3.48808 -8.29557 -6.8804 0
-4.52657 -2.93776 -5.5714 0
-3.95113 -3.06963 -6.06586 0
-3.44494 -3.38965 -6.37011 0
-6.52151 -2.00622 -4.08909 0
-5.56574 -2.24528 -4.71285 0
-8.32972 -2.25027 -2.96877 0
-7.37327 -1.77985 -3.50154 0
-4.9899 -2.50672 -5.21367 0
-5.16408 -2.80032 -4.90039 0
-2.55375 -6.31665 -6.8978 0
-2.32384 -5.49999 -6.86507 0
-3.10099 -3.96274 -6.58196 0
-2.55074 -4.91523 -6.97203 0
-2.72513 -4.39303 -6.87067 0
-3.7562 -8.96928 -6.84149 0
-4.04289 -9.58327 -6.82032 0
-4.56023 -9.44714 -7.3289 0
-4.96048 -9.91185 -7.41357 0
-5.31255 -9.86935 -7.51283 0
-6.05322 -10.0041 -7.55569 0
-6.72552 -9.65757 -7.65997 0
-22.4369 4.88353 -4.69246 0
-22.1378 5.18406 -4.87604 0
-22.6358 4.17781 -5.51956 0
-22.4315 3.31896 -6.12506 0
-21.788 3.15942 -6.40373 0
-22.0596 2.6308 -6.21377 0
-21.6307 2.06092 -5.95714 0
-21.2545 1.42003 -6.09945 0
-21.295 0.810723 -6.4951 0
-10.855 -2.29436 -2.34976 0
-9.91086 -2.43842 -1.98212 0
-11.6736 -1.81139 -1.96571 0
-11.338 -1.35456 -1.32473 0
-12.9366 0.470436 -1.96132 0
-12.0258 -0.460257 -1.2182 0
-13.819 1.99191 -2.00349 0
-16.696 3.7928 -2.44807 0
-15.3141 2.90267 -2.13996 0
-15.0722 2.82849 -1.77325 0
-17.4084 4.35816 -2.49028 0
-18.4559 5.19832 -3.08792 0
-19.4394 5.60251 -4.46882 0
-20.3096 5.39487 -5.76759 0
-20.8794 4.80127 -6.11193 0
-21.5038 4.67553 -6.25299 0
-22.1977 4.9869 -5.96835 0
692 2767 2768 0
691 2769 2767 0
691 2767 692 0
4 691 692 0
694 2770 2771 0
693 2772 2770 0
693 2770 694 0
174 693 694 0
695 2773 2772 0
2774 2773 695 0
173 2774 695 0
696 693 174 0
695 2772 693 0
695 693 696 0
173 695 696 0
698 696 174 0
697 173 696 0
697 696 698 0
3 697 698 0
700 691 4 0
699 2769 691 0
699 691 700 0
175 699 700 0
701 699 175 0
2775 2769 699 0
2775 699 701 0
2776 2775 701 0
703 701 175 0
702 2776 701 0
702 701 703 0
42 702 703 0
705 702 42 0
704 2776 702 0
704 702 705 0
176 704 705 0
2777 704 176 0
2778 2776 704 0
2778 704 2777 0
2779 2777 176 0
707 705 42 0
706 176 705 0
706 705 707 0
178 706 707 0
709 2779 176 0
708 2780 2779 0
708 2779 709 0
177 708 709 0
710 706 178 0
709 176 706 0
709 706 710 0
177 709 710 0
712 710 178 0
711 177 710 0
711 710 712 0
12 711 712 0
714 711 12 0
713 177 711 0
713 711 714 0
179 713 714 0
715 708 177 0
2781 2780 708 0
2781 708 715 0
2782 2781 715 0
716 713 179 0
715 177 713 0
715 713 716 0
2782 715 716 0
717 716 179 0
2783 2782 716 0
2783 716 717 0
43 2783 717 0
2784 2783 43 0
2785 2784 43 0
719 714 12 0
718 179 714 0
718 714 719 0
181 718 719 0
721 717 179 0
720 43 717 0
720 717 721 0
180 720 721 0
722 718 181 0
721 179 718 0
721 718 722 0
180 721 722 0
724 722 181 0
723 180 722 0
723 722 724 0
44 723 724 0
2786 2785 43 0
726 723 44 0
725 180 723 0
725 723 726 0
182 725 726 0
727 720 180 0
2786 43 720 0
2786 720 727 0
2787 2786 727 0
728 725 182 0
727 180 725 0
727 725 728 0
2787 727 728 0
729 728 182 0
2788 2787 728 0
2788 728 729 0
2771 2788 729 0
731 726 44 0
730 182 726 0
730 726 731 0
183 730 731 0
732 729 182 0
694 2771 729 0
694 729 732 0
174 694 732 0
733 730 183 0
732 182 730 0
732 730 733 0
174 732 733 0
734 733 183 0
698 174 733 0
698 733 734 0
3 698 734 0
736 700 4 0
735 175 700 0
735 700 736 0
185 735 736 0
738 703 175 0
737 42 703 0
737 703 738 0
184 737 738 0
739 735 185 0
738 175 735 0
738 735 739 0
184 738 739 0
741 739 185 0
740 184 739 0
740 739 741 0
46 740 741 0
743 707 42 0
742 178 707 0
742 707 743 0
187 742 743 0
745 712 178 0
744 12 712 0
744 712 745 0
186 744 745 0
746 742 187 0
745 178 742 0
745 742 746 0
186 745 746 0
748 746 187 0
747 186 746 0
747 746 748 0
45 747 748 0
750 740 46 0
749 184 740 0
749 740 750 0
188 749 750 0
751 737 184 0
743 42 737 0
743 737 751 0
187 743 751 0
752 749 188 0
751 184 749 0
751 749 752 0
187 751 752 0
753 752 188 0
748 187 752 0
748 752 753 0
45 748 753 0
755 750 46 0
754 188 750 0
754 750 755 0
190 754 755 0
757 753 188 0
756 45 753 0
756 753 757 0
189 756 757 0
758 754 190 0
757 188 754 0
757 754 758 0
189 757 758 0
760 758 190 0
759 189 758 0
759 758 760 0
14 759 760 0
762 719 12 0
761 181 719 0
761 719 762 0
192 761 762 0
764 724 181 0
763 44 724 0
763 724 764 0
191 763 764 0
765 761 192 0
764 181 761 0
764 761 765 0
191 764 765 0
767 765 192 0
766 191 765 0
766 765 767 0
48 766 767 0
769 731 44 0
768 183 731 0
768 731 769 0
194 768 769 0
771 734 183 0
770 3 734 0
770 734 771 0
193 770 771 0
772 768 194 0
771 183 768 0
771 768 772 0
193 771 772 0
774 772 194 0
773 193 772 0
773 772 774 0
47 773 774 0
776 766 48 0
775 191 766 0
775 766 776 0
195 775 776 0
777 763 191 0
769 44 763 0
769 763 777 0
194 769 777 0
778 775 195 0
777 191 775 0
777 775 778 0
194 777 778 0
779 778 195 0
774 194 778 0
774 778 779 0
47 774 779 0
781 776 48 0
780 195 776 0
780 776 781 0
197 780 781 0
783 779 195 0
782 47 779 0
782 779 783 0
196 782 783 0
784 780 197 0
783 195 780 0
783 780 784 0
196 783 784 0
786 784 197 0
785 196 784 0
785 784 786 0
13 785 786 0
788 759 14 0
787 189 759 0
787 759 788 0
199 787 788 0
790 756 189 0
789 45 756 0
789 756 790 0
198 789 790 0
791 787 199 0
790 189 787 0
790 787 791 0
198 790 791 0
793 791 199 0
792 198 791 0
792 791 793 0
49 792 793 0
795 747 45 0
794 186 747 0
794 747 795 0
200 794 795 0
796 744 186 0
762 12 744 0
762 744 796 0
192 762 796 0
797 794 200 0
796 186 794 0
796 794 797 0
192 796 797 0
798 797 200 0
767 192 797 0
767 797 798 0
48 767 798 0
800 792 49 0
799 198 792 0
799 792 800 0
201 799 800 0
801 789 198 0
795 45 789 0
795 789 801 0
200 795 801 0
802 799 201 0
801 198 799 0
801 799 802 0
200 801 802 0
803 802 201 0
798 200 802 0
798 802 803 0
48 798 803 0
805 800 49 0
804 201 800 0
804 800 805 0
202 804 805 0
806 803 201 0
781 48 803 0
781 803 806 0
197 781 806 0
807 804 202 0
806 201 804 0
806 804 807 0
197 806 807 0
808 807 202 0
786 197 807 0
786 807 808 0
13 786 808 0
810 788 14 0
809 199 788 0
809 788 810 0
204 809 810 0
812 793 199 0
811 49 793 0
811 793 812 0
203 811 812 0
813 809 204 0
812 199 809 0
812 809 813 0
203 812 813 0
815 813 204 0
814 203 813 0
814 813 815 0
51 814 815 0
817 805 49 0
816 202 805 0
816 805 817 0
206 816 817 0
819 808 202 0
818 13 808 0
818 808 819 0
205 818 819 0
820 816 206 0
819 202 816 0
819 816 820 0
205 819 820 0
822 820 206 0
821 205 820 0
821 820 822 0
50 821 822 0
824 814 51 0
823 203 814 0
823 814 824 0
207 823 824 0
825 811 203 0
817 49 811 0
817 811 825 0
206 817 825 0
826 823 207 0
825 203 823 0
825 823 826 0
206 825 826 0
827 826 207 0
822 206 826 0
822 826 827 0
50 822 827 0
829 824 51 0
828 207 824 0
828 824 829 0
209 828 829 0
831 827 207 0
830 50 827 0
830 827 831 0
208 830 831 0
832 828 209 0
831 207 828 0
831 828 832 0
208 831 832 0
834 832 209 0
833 208 832 0
833 832 834 0
0 833 834 0
836 833 0 0
835 208 833 0
835 833 836 0
211 835 836 0
838 830 208 0
837 50 830 0
837 830 838 0
210 837 838 0
839 835 211 0
838 208 835 0
838 835 839 0
210 838 839 0
841 839 211 0
840 210 839 0
840 839 841 0
53 840 841 0
843 821 50 0
842 205 821 0
842 821 843 0
213 842 843 0
845 818 205 0
844 13 818 0
844 818 845 0
212 844 845 0
846 842 213 0
845 205 842 0
845 842 846 0
212 845 846 0
848 846 213 0
847 212 846 0
847 846 848 0
52 847 848 0
850 840 53 0
849 210 840 0
849 840 850 0
214 849 850 0
851 837 210 0
843 50 837 0
843 837 851 0
213 843 851 0
852 849 214 0
851 210 849 0
851 849 852 0
213 851 852 0
853 852 214 0
848 213 852 0
848 852 853 0
52 848 853 0
855 850 53 0
854 214 850 0
854 850 855 0
216 854 855 0
857 853 214 0
856 52 853 0
856 853 857 0
215 856 857 0
858 854 216 0
857 214 854 0
857 854 858 0
215 857 858 0
860 858 216 0
859 215 858 0
859 858 860 0
16 859 860 0
862 785 13 0
861 196 785 0
861 785 862 0
218 861 862 0
864 782 196 0
863 47 782 0
863 782 864 0
217 863 864 0
865 861 218 0
864 196 861 0
864 861 865 0
217 864 865 0
867 865 218 0
866 217 865 0
866 865 867 0
55 866 867 0
869 773 47 0
868 193 773 0
868 773 869 0
220 868 869 0
871 770 193 0
870 3 770 0
870 770 871 0
219 870 871 0
872 868 220 0
871 193 868 0
871 868 872 0
219 871 872 0
874 872 220 0
873 219 872 0
873 872 874 0
54 873 874 0
876 866 55 0
875 217 866 0
875 866 876 0
221 875 876 0
877 863 217 0
869 47 863 0
869 863 877 0
220 869 877 0
878 875 221 0
877 217 875 0
877 875 878 0
220 877 878 0
879 878 221 0
874 220 878 0
874 878 879 0
54 874 879 0
881 876 55 0
880 221 876 0
880 876 881 0
223 880 881 0
883 879 221 0
882 54 879 0
882 879 883 0
222 882 883 0
884 880 223 0
883 221 880 0
883 880 884 0
222 883 884 0
886 884 223 0
885 222 884 0
885 884 886 0
15 885 886 0
888 859 16 0
887 215 859 0
887 859 888 0
225 887 888 0
890 856 215 0
889 52 856 0
889 856 890 0
224 889 890 0
891 887 225 0
890 215 887 0
890 887 891 0
224 890 891 0
893 891 225 0
892 224 891 0
892 891 893 0
56 892 893 0
895 847 52 0
894 212 847 0
894 847 895 0
226 894 895 0
896 844 212 0
862 13 844 0
862 844 896 0
218 862 896 0
897 894 226 0
896 212 894 0
896 894 897 0
218 896 897 0
898 897 226 0
867 218 897 0
867 897 898 0
55 867 898 0
900 892 56 0
899 224 892 0
899 892 900 0
227 899 900 0
901 889 224 0
895 52 889 0
895 889 901 0
226 895 901 0
902 899 227 0
901 224 899 0
901 899 902 0
226 901 902 0
903 902 227 0
898 226 902 0
898 902 903 0
55 898 903 0
905 900 56 0
904 227 900 0
904 900 905 0
228 904 905 0
906 903 227 0
881 55 903 0
881 903 906 0
223 881 906 0
907 904 228 0
906 227 904 0
906 904 907 0
223 906 907 0
908 907 228 0
886 223 907 0
886 907 908 0
15 886 908 0
910 888 16 0
909 225 888 0
909 888 910 0
230 909 910 0
912 893 225 0
911 56 893 0
911 893 912 0
229 911 912 0
913 909 230 0
912 225 909 0
912 909 913 0
229 912 913 0
915 913 230 0
914 229 913 0
914 913 915 0
58 914 915 0
917 905 56 0
916 228 905 0
916 905 917 0
232 916 917 0
919 908 228 0
918 15 908 0
918 908 919 0
231 918 919 0
920 916 232 0
919 228 916 0
919 916 920 0
231 919 920 0
922 920 232 0
921 231 920 0
921 920 922 0
57 921 922 0
924 914 58 0
923 229 914 0
923 914 924 0
233 923 924 0
925 911 229 0
917 56 911 0
917 911 925 0
232 917 925 0
926 923 233 0
925 229 923 0
925 923 926 0
232 925 926 0
927 926 233 0
922 232 926 0
922 926 927 0
57 922 927 0
929 924 58 0
928 233 924 0
928 924 929 0
235 928 929 0
931 927 233 0
930 57 927 0
930 927 931 0
234 930 931 0
932 928 235 0
931 233 928 0
931 928 932 0
234 931 932 0
934 932 235 0
933 234 932 0
933 932 934 0
6 933 934 0
936 697 3 0
935 173 697 0
935 697 936 0
237 935 936 0
937 2774 173 0
2789 2774 937 0
236 2789 937 0
938 935 237 0
937 173 935 0
937 935 938 0
236 937 938 0
940 938 237 0
939 236 938 0
939 938 940 0
59 939 940 0
942 939 59 0
941 236 939 0
941 939 942 0
238 941 942 0
2790 2789 236 0
2791 941 238 0
2790 236 941 0
2790 941 2791 0
2792 2791 238 0
944 942 59 0
943 238 942 0
943 942 944 0
239 943 944 0
945 2792 238 0
2793 2792 945 0
2794 2793 945 0
946 943 239 0
945 238 943 0
945 943 946 0
2794 945 946 0
948 946 239 0
947 2794 946 0
947 946 948 0
17 947 948 0
949 947 17 0
2795 2794 947 0
2795 947 949 0
2796 2795 949 0
951 949 17 0
950 2796 949 0
950 949 951 0
240 950 951 0
952 2797 2796 0
2798 2797 952 0
2799 2798 952 0
953 950 240 0
952 2796 950 0
952 950 953 0
2799 952 953 0
955 953 240 0
954 2799 953 0
954 953 955 0
60 954 955 0
956 954 60 0
2800 2799 954 0
2800 954 956 0
241 2800 956 0
2801 2800 241 0
2802 2801 241 0
958 956 60 0
957 241 956 0
957 956 958 0
243 957 958 0
959 2802 241 0
2803 2802 959 0
242 2803 959 0
960 957 243 0
959 241 957 0
959 957 960 0
242 959 960 0
962 960 243 0
961 242 960 0
961 960 962 0
5 961 962 0
964 933 6 0
963 234 933 0
963 933 964 0
245 963 964 0
966 930 234 0
965 57 930 0
965 930 966 0
244 965 966 0
967 963 245 0
966 234 963 0
966 963 967 0
244 966 967 0
969 967 245 0
968 244 967 0
968 967 969 0
62 968 969 0
971 921 57 0
970 231 921 0
970 921 971 0
247 970 971 0
973 918 231 0
972 15 918 0
972 918 973 0
246 972 973 0
974 970 247 0
973 231 970 0
973 970 974 0
246 973 974 0
976 974 247 0
975 246 974 0
975 974 976 0
61 975 976 0
978 968 62 0
977 244 968 0
977 968 978 0
248 977 978 0
979 965 244 0
971 57 965 0
971 965 979 0
247 971 979 0
980 977 248 0
979 244 977 0
979 977 980 0
247 979 980 0
981 980 248 0
976 247 980 0
976 980 981 0
61 976 981 0
983 978 62 0
982 248 978 0
982 978 983 0
250 982 983 0
985 981 248 0
984 61 981 0
984 981 985 0
249 984 985 0
986 982 250 0
985 248 982 0
985 982 986 0
249 985 986 0
988 986 250 0
987 249 986 0
987 986 988 0
18 987 988 0
990 885 15 0
989 222 885 0
989 885 990 0
252 989 990 0
992 882 222 0
991 54 882 0
991 882 992 0
251 991 992 0
993 989 252 0
992 222 989 0
992 989 993 0
251 992 993 0
995 993 252 0
994 251 993 0
994 993 995 0
63 994 995 0
997 873 54 0
996 219 873 0
996 873 997 0
253 996 997 0
998 870 219 0
936 3 870 0
936 870 998 0
237 936 998 0
999 996 253 0
998 219 996 0
998 996 999 0
237 998 999 0
1000 999 253 0
940 237 999 0
940 999 1000 0
59 940 1000 0
1002 994 63 0
1001 251 994 0
1001 994 1002 0
254 1001 1002 0
1003 991 251 0
997 54 991 0
997 991 1003 0
253 997 1003 0
1004 1001 254 0
1003 251 1001 0
1003 1001 1004 0
253 1003 1004 0
1005 1004 254 0
1000 253 1004 0
1000 1004 1005 0
59 1000 1005 0
1007 1002 63 0
1006 254 1002 0
1006 1002 1007 0
255 1006 1007 0
1008 1005 254 0
944 59 1005 0
944 1005 1008 0
239 944 1008 0
1009 1006 255 0
1008 254 1006 0
1008 1006 1009 0
239 1008 1009 0
1010 1009 255 0
948 239 1009 0
948 1009 1010 0
17 948 1010 0
1012 987 18 0
1011 249 987 0
1011 987 1012 0
257 1011 1012 0
1014 984 249 0
1013 61 984 0
1013 984 1014 0
256 1013 1014 0
1015 1011 257 0
1014 249 1011 0
1014 1011 1015 0
256 1014 1015 0
1017 1015 257 0
1016 256 1015 0
1016 1015 1017 0
64 1016 1017 0
1019 975 61 0
1018 246 975 0
1018 975 1019 0
258 1018 1019 0
1020 972 246 0
990 15 972 0
990 972 1020 0
252 990 1020 0
1021 1018 258 0
1020 246 1018 0
1020 1018 1021 0
252 1020 1021 0
1022 1021 258 0
995 252 1021 0
995 1021 1022 0
63 995 1022 0
1024 1016 64 0
1023 256 1016 0
1023 1016 1024 0
259 1023 1024 0
1025 1013 256 0
1019 61 1013 0
1019 1013 1025 0
258 1019 1025 0
1026 1023 259 0
1025 256 1023 0
1025 1023 1026 0
258 1025 1026 0
1027 1026 259 0
1022 258 1026 0
1022 1026 1027 0
63 1022 1027 0
1029 1024 64 0
1028 259 1024 0
1028 1024 1029 0
260 1028 1029 0
1030 1027 259 0
1007 63 1027 0
1007 1027 1030 0
255 1007 1030 0
1031 1028 260 0
1030 259 1028 0
1030 1028 1031 0
255 1030 1031 0
1032 1031 260 0
1010 255 1031 0
1010 1031 1032 0
17 1010 1032 0
1034 1012 18 0
1033 257 1012 0
1033 1012 1034 0
262 1033 1034 0
1036 1017 257 0
1035 64 1017 0
1035 1017 1036 0
261 1035 1036 0
1037 1033 262 0
1036 257 1033 0
1036 1033 1037 0
261 1036 1037 0
1039 1037 262 0
1038 261 1037 0
1038 1037 1039 0
65 1038 1039 0
1041 1029 64 0
1040 260 1029 0
1040 1029 1041 0
263 1040 1041 0
1042 1032 260 0
951 17 1032 0
951 1032 1042 0
240 951 1042 0
1043 1040 263 0
1042 260 1040 0
1042 1040 1043 0
240 1042 1043 0
1044 1043 263 0
955 240 1043 0
955 1043 1044 0
60 955 1044 0
1046 1038 65 0
1045 261 1038 0
1045 1038 1046 0
264 1045 1046 0
1047 1035 261 0
1041 64 1035 0
1041 1035 1047 0
263 1041 1047 0
1048 1045 264 0
1047 261 1045 0
1047 1045 1048 0
263 1047 1048 0
1049 1048 264 0
1044 263 1048 0
1044 1048 1049 0
60 1044 1049 0
1051 1046 65 0
1050 264 1046 0
1050 1046 1051 0
265 1050 1051 0
1052 1049 264 0
958 60 1049 0
958 1049 1052 0
243 958 1052 0
1053 1050 265 0
1052 264 1050 0
1052 1050 1053 0
243 1052 1053 0
1054 1053 265 0
962 243 1053 0
962 1053 1054 0
5 962 1054 0
1056 964 6 0
1055 245 964 0
1055 964 1056 0
267 1055 1056 0
1058 969 245 0
1057 62 969 0
1057 969 1058 0
266 1057 1058 0
1059 1055 267 0
1058 245 1055 0
1058 1055 1059 0
266 1058 1059 0
1061 1059 267 0
1060 266 1059 0
1060 1059 1061 0
67 1060 1061 0
1063 983 62 0
1062 250 983 0
1062 983 1063 0
269 1062 1063 0
1065 988 250 0
1064 18 988 0
1064 988 1065 0
268 1064 1065 0
1066 1062 269 0
1065 250 1062 0
1065 1062 1066 0
268 1065 1066 0
1068 1066 269 0
1067 268 1066 0
1067 1066 1068 0
66 1067 1068 0
1070 1060 67 0
1069 266 1060 0
1069 1060 1070 0
270 1069 1070 0
1071 1057 266 0
1063 62 1057 0
1063 1057 1071 0
269 1063 1071 0
1072 1069 270 0
1071 266 1069 0
1071 1069 1072 0
269 1071 1072 0
1073 1072 270 0
1068 269 1072 0
1068 1072 1073 0
66 1068 1073 0
1075 1070 67 0
1074 270 1070 0
1074 1070 1075 0
272 1074 1075 0
1077 1073 270 0
1076 66 1073 0
1076 1073 1077 0
271 1076 1077 0
1078 1074 272 0
1077 270 1074 0
1077 1074 1078 0
271 1077 1078 0
1080 1078 272 0
1079 271 1078 0
1079 1078 1080 0
20 1079 1080 0
1082 1034 18 0
1081 262 1034 0
1081 1034 1082 0
274 1081 1082 0
1084 1039 262 0
1083 65 1039 0
1083 1039 1084 0
273 1083 1084 0
1085 1081 274 0
1084 262 1081 0
1084 1081 1085 0
273 1084 1085 0
1087 1085 274 0
1086 273 1085 0
1086 1085 1087 0
69 1086 1087 0
1089 1051 65 0
1088 265 1051 0
1088 1051 1089 0
276 1088 1089 0
1091 1054 265 0
1090 5 1054 0
1090 1054 1091 0
275 1090 1091 0
1092 1088 276 0
1091 265 1088 0
1091 1088 1092 0
275 1091 1092 0
1094 1092 276 0
1093 275 1092 0
1093 1092 1094 0
68 1093 1094 0
1096 1086 69 0
1095 273 1086 0
1095 1086 1096 0
277 1095 1096 0
1097 1083 273 0
1089 65 1083 0
1089 1083 1097 0
276 1089 1097 0
1098 1095 277 0
1097 273 1095 0
1097 1095 1098 0
276 1097 1098 0
1099 1098 277 0
1094 276 1098 0
1094 1098 1099 0
68 1094 1099 0
1101 1096 69 0
1100 277 1096 0
1100 1096 1101 0
279 1100 1101 0
1103 1099 277 0
1102 68 1099 0
1102 1099 1103 0
278 1102 1103 0
1104 1100 279 0
1103 277 1100 0
1103 1100 1104 0
278 1103 1104 0
1106 1104 279 0
1105 278 1104 0
1105 1104 1106 0
19 1105 1106 0
1108 1079 20 0
1107 271 1079 0
1107 1079 1108 0
281 1107 1108 0
1110 1076 271 0
1109 66 1076 0
1109 1076 1110 0
280 1109 1110 0
1111 1107 281 0
1110 271 1107 0
1110 1107 1111 0
280 1110 1111 0
1113 1111 281 0
1112 280 1111 0
1112 1111 1113 0
70 1112 1113 0
1115 1067 66 0
1114 268 1067 0
1114 1067 1115 0
282 1114 1115 0
1116 1064 268 0
1082 18 1064 0
1082 1064 1116 0
274 1082 1116 0
1117 1114 282 0
1116 268 1114 0
1116 1114 1117 0
274 1116 1117 0
1118 1117 282 0
1087 274 1117 0
1087 1117 1118 0
69 1087 1118 0
1120 1112 70 0
1119 280 1112 0
1119 1112 1120 0
283 1119 1120 0
1121 1109 280 0
1115 66 1109 0
1115 1109 1121 0
282 1115 1121 0
1122 1119 283 0
1121 280 1119 0
1121 1119 1122 0
282 1121 1122 0
1123 1122 283 0
1118 282 1122 0
1118 1122 1123 0
69 1118 1123 0
1125 1120 70 0
1124 283 1120 0
1124 1120 1125 0
284 1124 1125 0
1126 1123 283 0
1101 69 1123 0
1101 1123 1126 0
279 1101 1126 0
1127 1124 284 0
1126 283 1124 0
1126 1124 1127 0
279 1126 1127 0
1128 1127 284 0
1106 279 1127 0
1106 1127 1128 0
19 1106 1128 0
1130 1108 20 0
1129 281 1108 0
1129 1108 1130 0
286 1129 1130 0
1132 1113 281 0
1131 70 1113 0
1131 1113 1132 0
285 1131 1132 0
1133 1129 286 0
1132 281 1129 0
1132 1129 1133 0
285 1132 1133 0
1135 1133 286 0
1134 285 1133 0
1134 1133 1135 0
72 1134 1135 0
1137 1125 70 0
1136 284 1125 0
1136 1125 1137 0
288 1136 1137 0
1139 1128 284 0
1138 19 1128 0
1138 1128 1139 0
287 1138 1139 0
1140 1136 288 0
1139 284 1136 0
1139 1136 1140 0
287 1139 1140 0
1142 1140 288 0
1141 287 1140 0
1141 1140 1142 0
71 1141 1142 0
1144 1134 72 0
1143 285 1134 0
1143 1134 1144 0
289 1143 1144 0
1145 1131 285 0
1137 70 1131 0
1137 1131 1145 0
288 1137 1145 0
1146 1143 289 0
1145 285 1143 0
1145 1143 1146 0
288 1145 1146 0
1147 1146 289 0
1142 288 1146 0
1142 1146 1147 0
71 1142 1147 0
1149 1144 72 0
1148 289 1144 0
1148 1144 1149 0
291 1148 1149 0
1151 1147 289 0
1150 71 1147 0
1150 1147 1151 0
290 1150 1151 0
1152 1148 291 0
1151 289 1148 0
1151 1148 1152 0
290 1151 1152 0
1154 1152 291 0
1153 290 1152 0
1153 1152 1154 0
2 1153 1154 0
1156 1153 2 0
1155 290 1153 0
1155 1153 1156 0
293 1155 1156 0
1158 1150 290 0
1157 71 1150 0
1157 1150 1158 0
292 1157 1158 0
1159 1155 293 0
1158 290 1155 0
1158 1155 1159 0
292 1158 1159 0
1161 1159 293 0
1160 292 1159 0
1160 1159 1161 0
74 1160 1161 0
1163 1141 71 0
1162 287 1141 0
1162 1141 1163 0
295 1162 1163 0
1165 1138 287 0
1164 19 1138 0
1164 1138 1165 0
294 1164 1165 0
1166 1162 295 0
1165 287 1162 0
1165 1162 1166 0
294 1165 1166 0
1168 1166 295 0
1167 294 1166 0
1167 1166 1168 0
73 1167 1168 0
1170 1160 74 0
1169 292 1160 0
1169 1160 1170 0
296 1169 1170 0
1171 1157 292 0
1163 71 1157 0
1163 1157 1171 0
295 1163 1171 0
1172 1169 296 0
1171 292 1169 0
1171 1169 1172 0
295 1171 1172 0
1173 1172 296 0
1168 295 1172 0
1168 1172 1173 0
73 1168 1173 0
1175 1170 74 0
1174 296 1170 0
1174 1170 1175 0
298 1174 1175 0
1177 1173 296 0
1176 73 1173 0
1176 1173 1177 0
297 1176 1177 0
1178 1174 298 0
1177 296 1174 0
1177 1174 1178 0
297 1177 1178 0
1180 1178 298 0
1179 297 1178 0
1179 1178 1180 0
22 1179 1180 0
1182 1105 19 0
1181 278 1105 0
1181 1105 1182 0
300 1181 1182 0
1184 1102 278 0
1183 68 1102 0
1183 1102 1184 0
299 1183 1184 0
1185 1181 300 0
1184 278 1181 0
1184 1181 1185 0
299 1184 1185 0
1187 1185 300 0
1186 299 1185 0
1186 1185 1187 0
76 1186 1187 0
1189 1093 68 0
1188 275 1093 0
1188 1093 1189 0
302 1188 1189 0
1191 1090 275 0
1190 5 1090 0
1190 1090 1191 0
301 1190 1191 0
1192 1188 302 0
1191 275 1188 0
1191 1188 1192 0
301 1191 1192 0
1194 1192 302 0
1193 301 1192 0
1193 1192 1194 0
75 1193 1194 0
1196 1186 76 0
1195 299 1186 0
1195 1186 1196 0
303 1195 1196 0
1197 1183 299 0
1189 68 1183 0
1189 1183 1197 0
302 1189 1197 0
1198 1195 303 0
1197 299 1195 0
1197 1195 1198 0
302 1197 1198 0
1199 1198 303 0
1194 302 1198 0
1194 1198 1199 0
75 1194 1199 0
1201 1196 76 0
1200 303 1196 0
1200 1196 1201 0
305 1200 1201 0
1203 1199 303 0
1202 75 1199 0
1202 1199 1203 0
304 1202 1203 0
1204 1200 305 0
1203 303 1200 0
1203 1200 1204 0
304 1203 1204 0
1206 1204 305 0
1205 304 1204 0
1205 1204 1206 0
21 1205 1206 0
1208 1179 22 0
1207 297 1179 0
1207 1179 1208 0
307 1207 1208 0
1210 1176 297 0
1209 73 1176 0
1209 1176 1210 0
306 1209 1210 0
1211 1207 307 0
1210 297 1207 0
1210 1207 1211 0
306 1210 1211 0
1213 1211 307 0
1212 306 1211 0
1212 1211 1213 0
77 1212 1213 0
1215 1167 73 0
1214 294 1167 0
1214 1167 1215 0
308 1214 1215 0
1216 1164 294 0
1182 19 1164 0
1182 1164 1216 0
300 1182 1216 0
1217 1214 308 0
1216 294 1214 0
1216 1214 1217 0
300 1216 1217 0
1218 1217 308 0
1187 300 1217 0
1187 1217 1218 0
76 1187 1218 0
1220 1212 77 0
1219 306 1212 0
1219 1212 1220 0
309 1219 1220 0
1221 1209 306 0
1215 73 1209 0
1215 1209 1221 0
308 1215 1221 0
1222 1219 309 0
1221 306 1219 0
1221 1219 1222 0
308 1221 1222 0
1223 1222 309 0
1218 308 1222 0
1218 1222 1223 0
76 1218 1223 0
1225 1220 77 0
1224 309 1220 0
1224 1220 1225 0
310 1224 1225 0
1226 1223 309 0
1201 76 1223 0
1201 1223 1226 0
305 1201 1226 0
1227 1224 310 0
1226 309 1224 0
1226 1224 1227 0
305 1226 1227 0
1228 1227 310 0
1206 305 1227 0
1206 1227 1228 0
21 1206 1228 0
1230 1208 22 0
1229 307 1208 0
1229 1208 1230 0
312 1229 1230 0
1232 1213 307 0
1231 77 1213 0
1231 1213 1232 0
311 1231 1232 0
1233 1229 312 0
1232 307 1229 0
1232 1229 1233 0
311 1232 1233 0
1235 1233 312 0
1234 311 1233 0
1234 1233 1235 0
79 1234 1235 0
1237 1225 77 0
1236 310 1225 0
1236 1225 1237 0
314 1236 1237 0
1239 1228 310 0
1238 21 1228 0
1238 1228 1239 0
313 1238 1239 0
1240 1236 314 0
1239 310 1236 0
1239 1236 1240 0
313 1239 1240 0
1242 1240 314 0
1241 313 1240 0
1241 1240 1242 0
78 1241 1242 0
1244 1234 79 0
1243 311 1234 0
1243 1234 1244 0
315 1243 1244 0
1245 1231 311 0
1237 77 1231 0
1237 1231 1245 0
314 1237 1245 0
1246 1243 315 0
1245 311 1243 0
1245 1243 1246 0
314 1245 1246 0
1247 1246 315 0
1242 314 1246 0
1242 1246 1247 0
78 1242 1247 0
1249 1244 79 0
1248 315 1244 0
1248 1244 1249 0
317 1248 1249 0
1251 1247 315 0
1250 78 1247 0
1250 1247 1251 0
316 1250 1251 0
1252 1248 317 0
1251 315 1248 0
1251 1248 1252 0
316 1251 1252 0
1254 1252 317 0
1253 316 1252 0
1253 1252 1254 0
7 1253 1254 0
1256 961 5 0
1255 242 961 0
1255 961 1256 0
318 1255 1256 0
2804 2803 242 0
2805 1255 318 0
2804 242 1255 0
2804 1255 2805 0
2806 2805 318 0
1258 1253 7 0
1257 316 1253 0
1257 1253 1258 0
320 1257 1258 0
1260 1250 316 0
1259 78 1250 0
1259 1250 1260 0
319 1259 1260 0
1261 1257 320 0
1260 316 1257 0
1260 1257 1261 0
319 1260 1261 0
1263 1261 320 0
1262 319 1261 0
1262 1261 1263 0
2807 1262 1263 0
1265 1241 78 0
1264 313 1241 0
1264 1241 1265 0
322 1264 1265 0
1267 1238 313 0
1266 21 1238 0
1266 1238 1267 0
321 1266 1267 0
1268 1264 322 0
1267 313 1264 0
1267 1264 1268 0
321 1267 1268 0
1270 1268 322 0
1269 321 1268 0
1269 1268 1270 0
2808 1269 1270 0
2809 1262 2807 0
1271 319 1262 0
1271 1262 2809 0
2810 1271 2809 0
1272 1259 319 0
1265 78 1259 0
1265 1259 1272 0
322 1265 1272 0
1273 1271 2810 0
1272 319 1271 0
1272 1271 1273 0
322 1272 1273 0
2811 1273 2810 0
1270 322 1273 0
1270 1273 2811 0
2808 1270 2811 0
1275 1205 21 0
1274 304 1205 0
1274 1205 1275 0
324 1274 1275 0
1277 1202 304 0
1276 75 1202 0
1276 1202 1277 0
323 1276 1277 0
1278 1274 324 0
1277 304 1274 0
1277 1274 1278 0
323 1277 1278 0
1279 1278 324 0
2812 323 1278 0
2812 1278 1279 0
2813 2812 1279 0
1281 1193 75 0
1280 301 1193 0
1280 1193 1281 0
325 1280 1281 0
1282 1190 301 0
1256 5 1190 0
1256 1190 1282 0
318 1256 1282 0
1283 1280 325 0
1282 301 1280 0
1282 1280 1283 0
318 1282 1283 0
2814 1283 325 0
2806 318 1283 0
2806 1283 2814 0
2815 323 2812 0
1284 1276 323 0
1281 75 1276 0
1281 1276 1284 0
325 1281 1284 0
1284 323 2815 0
1284 2815 2816 0
325 1284 2816 0
2814 325 2816 0
2817 1269 2808 0
1285 321 1269 0
1285 1269 2817 0
2818 1285 2817 0
1286 1266 321 0
1275 21 1266 0
1275 1266 1286 0
324 1275 1286 0
1287 1285 2818 0
1286 321 1285 0
1286 1285 1287 0
324 1286 1287 0
2819 1287 2818 0
1279 324 1287 0
1279 1287 2819 0
2813 1279 2819 0
1289 1258 7 0
1288 320 1258 0
1288 1258 1289 0
327 1288 1289 0
1291 1263 320 0
1290 2807 1263 0
1290 1263 1291 0
326 1290 1291 0
1292 1288 327 0
1291 320 1288 0
1291 1288 1292 0
326 1291 1292 0
1294 1292 327 0
1293 326 1292 0
1293 1292 1294 0
80 1293 1294 0
2820 1293 80 0
2821 326 1293 0
2821 1293 2820 0
2822 1290 326 0
2823 2807 1290 0
2823 1290 2822 0
2822 326 2821 0
1295 2820 80 0
2824 2820 1295 0
2825 2824 1295 0
1297 1156 2 0
1296 293 1156 0
1296 1156 1297 0
329 1296 1297 0
1299 1161 293 0
1298 74 1161 0
1298 1161 1299 0
328 1298 1299 0
1300 1296 329 0
1299 293 1296 0
1299 1296 1300 0
328 1299 1300 0
1302 1300 329 0
1301 328 1300 0
1301 1300 1302 0
82 1301 1302 0
1304 1175 74 0
1303 298 1175 0
1303 1175 1304 0
331 1303 1304 0
1306 1180 298 0
1305 22 1180 0
1305 1180 1306 0
330 1305 1306 0
1307 1303 331 0
1306 298 1303 0
1306 1303 1307 0
330 1306 1307 0
1309 1307 331 0
1308 330 1307 0
1308 1307 1309 0
81 1308 1309 0
1311 1301 82 0
1310 328 1301 0
1310 1301 1311 0
332 1310 1311 0
1312 1298 328 0
1304 74 1298 0
1304 1298 1312 0
331 1304 1312 0
1313 1310 332 0
1312 328 1310 0
1312 1310 1313 0
331 1312 1313 0
1314 1313 332 0
1309 331 1313 0
1309 1313 1314 0
81 1309 1314 0
1316 1311 82 0
1315 332 1311 0
1315 1311 1316 0
334 1315 1316 0
1318 1314 332 0
1317 81 1314 0
1317 1314 1318 0
333 1317 1318 0
1319 1315 334 0
1318 332 1315 0
1318 1315 1319 0
333 1318 1319 0
1321 1319 334 0
1320 333 1319 0
1320 1319 1321 0
24 1320 1321 0
1323 1230 22 0
1322 312 1230 0
1322 1230 1323 0
336 1322 1323 0
1325 1235 312 0
1324 79 1235 0
1324 1235 1325 0
335 1324 1325 0
1326 1322 336 0
1325 312 1322 0
1325 1322 1326 0
335 1325 1326 0
1328 1326 336 0
1327 335 1326 0
1327 1326 1328 0
84 1327 1328 0
1330 1249 79 0
1329 317 1249 0
1329 1249 1330 0
338 1329 1330 0
1332 1254 317 0
1331 7 1254 0
1331 1254 1332 0
337 1331 1332 0
1333 1329 338 0
1332 317 1329 0
1332 1329 1333 0
337 1332 1333 0
1335 1333 338 0
1334 337 1333 0
1334 1333 1335 0
83 1334 1335 0
1337 1327 84 0
1336 335 1327 0
1336 1327 1337 0
339 1336 1337 0
1338 1324 335 0
1330 79 1324 0
1330 1324 1338 0
338 1330 1338 0
1339 1336 339 0
1338 335 1336 0
1338 1336 1339 0
338 1338 1339 0
1340 1339 339 0
1335 338 1339 0
1335 1339 1340 0
83 1335 1340 0
1342 1337 84 0
1341 339 1337 0
1341 1337 1342 0
341 1341 1342 0
1344 1340 339 0
1343 83 1340 0
1343 1340 1344 0
340 1343 1344 0
1345 1341 341 0
1344 339 1341 0
1344 1341 1345 0
340 1344 1345 0
1347 1345 341 0
1346 340 1345 0
1346 1345 1347 0
23 1346 1347 0
1349 1320 24 0
1348 333 1320 0
1348 1320 1349 0
343 1348 1349 0
1351 1317 333 0
1350 81 1317 0
1350 1317 1351 0
342 1350 1351 0
1352 1348 343 0
1351 333 1348 0
1351 1348 1352 0
342 1351 1352 0
1354 1352 343 0
1353 342 1352 0
1353 1352 1354 0
85 1353 1354 0
1356 1308 81 0
1355 330 1308 0
1355 1308 1356 0
344 1355 1356 0
1357 1305 330 0
1323 22 1305 0
1323 1305 1357 0
336 1323 1357 0
1358 1355 344 0
1357 330 1355 0
